 -1.1043539 -0.5762125 2.5713162
 -1.0926996 -0.4589308 2.5696654
 -0.9129887 -0.7995605 2.5340281
 -2.4756043 0.2535422 0.9768978
 -2.4151995 0.2451899 0.9547291
 -2.4511881 0.2450043 0.9546129
 -2.4406223 0.2515583 0.9685590
 -2.3943782 0.1141343 1.2137616
 -0.7687080 -0.7829868 2.4011617
 -2.5026104 0.3834395 0.7536542
 -2.0292799 1.3767924 0.7032027
 -1.3239129 0.5924038 1.9295594
 -2.2395234 -0.7446717 1.2648168
 -2.3783412 0.1121285 1.1940340
 -2.3512864 0.1090832 1.1969806
 -2.3410957 0.1222929 1.1708686
 -2.3801899 0.1154307 1.2169465
 -2.3567564 0.2239353 0.9672113
 -1.0384164 -0.2682649 2.5483062
 -0.9132030 -0.7272680 2.3580596
 -1.0155425 -0.7318318 2.4335842
 -2.2298141 -0.1879914 1.6644979
 -2.1768391 -0.6963419 1.1736768
 -2.2930155 -1.0041507 1.5375457
 -1.1061093 -0.5654818 2.5088482
 -1.0893044 -0.6703534 2.4829469
 -1.0508991 -0.7565215 2.5295713
 -1.0399610 -0.3909776 2.5575476
 -2.3300774 0.0557147 1.2934387
 -1.0361305 -0.3400061 2.5545154
 -1.0429152 -0.3615883 2.4684565
 -2.3305602 -0.8891467 1.6682962
 -1.0574452 0.0976743 2.6253436
 -2.4783707 1.2537626 0.2919613
 -2.2576048 -0.8642045 1.6288821
 -1.8199910 0.5571222 2.0969687
 -2.2155905 -0.7468709 1.7951928
 -2.5681796 1.1705692 0.2432360
 -1.9395943 -0.7020026 1.5416636
 -1.0544026 0.0804618 2.6093395
 -2.3692312 -0.9788250 1.5973054
 -1.0858988 -0.4567145 2.5433824
 -1.8182434 0.5557620 2.1026738
 -2.0750997 -0.1897119 1.9896561
 -2.1333845 -0.5588029 1.8542315
 -1.0513837 0.0831313 2.6130958
 -2.8130996 0.0720488 -0.1414614
 -2.4439721 -0.7768055 1.8060727
 -2.2497408 -0.7606980 1.7064008
 -1.7894299 0.5488575 2.0884097
 -2.2908826 -0.6266325 1.8451948
 -1.0492876 0.0825170 2.6054363
 -2.2560563 -0.1222087 1.5594534
 -2.3202906 -0.5164024 1.9270318
 -2.2148464 -0.3169253 1.9719547
 -2.2411530 -0.6177732 1.8240768
 -2.0043724 -0.1953005 1.9561967
 -2.0679204 0.3146514 2.1380877
 -2.3972855 -0.6478981 1.9272591
 -2.1727326 -0.5336323 1.8414587
 -2.2173314 0.1534169 2.1476135
 -2.1698024 0.1481126 2.1345215
 4.8381810 -0.6884261 1.1558195
 4.8127575 -0.7139416 1.0617726
 4.8104196 -1.0198274 0.8985070
 4.7847700 -1.2674712 0.8210998
 4.8260822 -1.0317335 0.9206871
 4.8343334 -0.7249696 1.0889417
 4.8579550 -0.7197465 1.1124898
 5.0844274 -0.6408043 0.9878254
 4.9104848 -1.3427305 0.9466339
 4.6947055 0.2248710 1.4901272
 4.0192566 -1.0094382 1.3509037
 4.7615142 -0.4031452 1.4278678
 -2.5632224 1.1810652 0.2531403
 -2.7437437 0.8352196 0.1297890
 -2.6842127 0.6741117 0.2868954
 -2.6259012 0.4834021 0.3979507
 -2.2541106 -0.1194192 1.5724499
 -2.6034739 0.6915621 0.2970096
 -2.6587431 0.6650445 0.2896971
 -2.3652713 0.0963461 1.2330329
 -0.0374481 0.3369658 2.0693493
 -2.6315436 0.7966798 0.1285933
 -2.5487351 0.5091818 0.5020268
 -2.9538710 0.8271618 0.1881595
 -2.2892215 -1.0650007 1.5208734
 -2.6848202 0.6979766 0.3215653
 -2.8994513 0.5740439 0.0667868
 -2.7514019 0.7030757 0.3072157
 -2.0735075 -1.6696060 2.1330943
 0.0290387 0.4181775 1.9369988
 -2.2744563 -1.0158693 1.5597196
 -2.5333297 0.4234345 0.6933420
 -2.8755510 0.8132061 0.1861039
 -2.3184762 1.5072292 0.4352347
 -2.7787998 0.7746762 0.1832664
 -2.5709243 0.2844025 0.3042845
 -2.6210124 0.6536934 0.2692923
 -2.9149940 0.8338723 0.1880834
 -2.3265979 -1.0111349 1.5804402
 -2.2898428 -0.1394410 1.6230972
 -2.6938186 0.5918793 0.4833392
 -2.8013628 1.6642911 0.1922380
 -2.3745043 -1.0480478 1.6206383
 -2.7948732 1.3161826 0.2226875
 -2.6696594 0.8167410 0.1360177
 -2.6867650 0.7315470 0.1838831
 -2.6952910 0.5839999 0.4848292
 0.0354390 0.4235179 2.1043808
 -2.3505874 -1.0233674 1.5971304
 -2.7911062 1.6486051 0.2003472
 -2.5278358 0.3868563 0.7689729
 -2.5463650 0.4356803 0.6646599
 -2.7997303 1.6562008 0.1981942
 -2.4148443 -0.0877713 0.7618226
 -2.6397171 0.5635881 0.4761455
 -2.1383848 -0.5493278 1.8340807
 -2.1981065 -0.4836232 1.5952692
 -2.6686623 0.5728672 0.4752692
 0.0825886 0.4549640 1.9502192
 -2.8368590 0.7658940 0.1770862
 -2.2542987 -0.8551919 1.6227374
 -2.3384676 0.0812228 1.2184393
 0.9267461 0.4668756 1.7107435
 -2.2424741 -0.7397089 1.6985493
 -2.8161039 0.7074654 0.3549122
 -2.1472962 -0.7162081 1.7224889
 0.0549298 0.4468115 1.8972327
 -2.1579459 -0.5705994 1.8820227
 -2.2339692 -0.7205093 1.7017293
 0.1574957 0.4208384 2.0115175
 -2.1896815 -0.5029438 1.8373542
 -2.5159476 0.3748012 0.7685767
 0.7599928 0.3134367 2.3421440
 0.6931333 0.3092756 2.2354677
 -2.2477450 -0.8461695 1.7049432
 -2.1690249 -0.2218072 1.7737833
 -2.0693228 -1.4268864 2.2858024
 -2.2731760 -0.7604541 1.7199090
 -2.5831468 1.1846831 0.2537439
 -2.5120928 1.4204160 0.3469535
 -2.4828324 1.4107448 0.3463294
 -2.8612695 0.4918832 0.0395180
 -2.2349923 1.3728545 0.6427841
 -2.8369441 0.8679290 0.1405829
 -1.3236042 0.5922585 1.9391598
 -2.8142843 0.5465220 0.0678645
 -2.6389923 0.7937110 0.1233702
 -2.6034019 1.1905631 0.2474886
 -2.2614319 -0.7360492 1.2337312
 -2.6801162 0.8068876 0.1278663
 -2.6158621 1.3288400 0.3039267
 -2.2942605 1.4780742 0.5068300
 -2.3144133 1.5166085 0.4401129
 -2.2807739 1.4694862 0.4947864
 -2.8053629 0.7054039 0.2835545
 -2.6807923 0.6741937 0.2919495
 -2.7407835 1.2758571 0.2343449
 -2.2900651 1.5014486 0.4368600
 -2.6208258 0.7975348 0.1273937
 -2.7017932 0.6725283 0.2818473
 -2.2151065 0.1556776 2.1602490
 -2.1266673 0.1443829 2.0919921
 -2.1274693 -1.4520314 2.3431754
 -2.0678625 -1.0343727 2.5251424
 -2.0748463 0.2659122 2.2084582
 -1.5218065 0.4458513 2.2935030
 -1.5209531 0.4512526 2.2908502
 -1.0353838 -0.3997273 2.4854879
 -2.1571040 -0.3770711 1.9322448
 -1.0367939 -0.2851382 2.5067747
 -1.0411425 -0.3343922 2.5392811
 -1.0372986 0.0386185 2.6135786
 -0.0492940 0.3035709 2.0951867
 -1.0354530 -0.0133464 2.5767686
 -2.0733960 0.0510654 2.0570815
 -1.0435718 -0.4016904 2.5343032
 -1.0115045 -0.7763193 2.5575302
 -1.0372126 -0.3308174 2.5124018
 -1.0435562 -0.0788692 2.5780849
 0.0481285 0.4254150 2.1319997
 -2.0627906 0.1038956 2.1035898
 -1.0376682 0.0855394 2.5964530
 -1.0523629 0.1164383 2.6028826
 -1.0628228 0.1055965 2.6414270
 -1.0552634 0.1110987 2.6010933
 -1.0547581 0.1225613 2.6884131
 -1.0724481 0.0706621 2.8598485
 -1.9222858 0.4402428 2.4008808
 -1.9555805 0.4571337 2.3623340
 -2.1166234 -1.4365656 2.3060446
 -2.0174396 -1.0738754 2.5005040
 -2.0713983 -1.1783746 2.4758382
 -2.0528028 -1.1701596 2.4717016
 -2.0266905 -0.9844463 2.6642168
 -1.9981455 -1.0548133 2.4801829
 -2.0190010 -1.1390877 2.4519961
 -2.0008905 -0.9473513 2.5174932
 -2.0142362 -0.9702094 2.5674963
 -1.9538267 -0.8115488 2.6793730
 -1.9837428 -0.9114174 2.6063759
 -1.7605168 -0.4057230 2.9057736
 -1.7424619 -0.3984788 2.8612540
 -2.4715128 0.2857504 0.9183455
 -2.4087806 0.1075189 1.2670324
 -2.1369603 1.1878316 0.9744998
 0.9150085 0.4642291 1.6996800
 -2.2059472 -0.1541454 1.5981659
 -2.4427509 0.2843819 0.9099174
 -2.2135277 -0.2362743 1.7979203
 0.0445006 0.3606095 2.0996068
 -2.1238270 -0.5471820 1.8190801
 -2.2013004 -0.5970210 1.7652391
 -2.2453258 -0.1538411 1.5962856
 -2.1947644 -0.5964313 1.7585089
 0.1454267 0.4167724 2.2156796
 -2.2052331 -0.1449407 1.5907478
 -1.7212876 0.4953894 2.2609107
 -2.1841016 -0.4445649 1.8570839
 -2.2219725 -0.6914814 1.7592672
 -2.2586098 -0.7163329 1.8061312
 -2.8804452 1.7134836 0.2302739
 -2.2189493 -0.5452055 1.8153026
 -2.0777102 -1.4259043 2.2944212
 -2.1744440 -0.4388115 1.8785515
 -2.0729260 -1.0260335 2.1302800
 -2.3665268 0.0543658 1.3108711
 -2.1927021 -0.4403254 1.8984680
 -2.2239509 -0.5216984 1.8708314
 -1.8564057 0.5172306 2.2346256
 -1.9608747 0.2406679 2.0790224
 -1.9877726 -0.9504938 2.5778201
 -2.0635107 -1.0900847 2.5161865
 -1.9979995 -0.9532925 2.5701139
 -1.8171090 0.4860314 2.2125230
 -1.9732872 -0.9101710 2.5906937
 -2.0178983 -1.1083572 2.4804881
 -1.6743295 0.3472248 2.4659350
 -2.0067761 -1.0632906 2.4901524
 -1.9799992 -0.8792636 2.5975308
 -2.0427949 -1.1502415 2.4100773
 -1.7440681 -0.7967259 2.7741086
 -2.1225240 0.1295197 2.1388390
 -1.9117918 -0.6991584 2.7124898
 -1.9480735 0.2316927 2.0584040
 -2.0958118 0.0648165 2.1077263
 -1.9183873 0.4296997 2.3292851
 -1.9023175 -0.6901923 2.7064686
 -2.0015903 -0.9594101 2.5363262
 -1.8979481 0.4227822 2.2211258
 -1.9437248 -0.7939187 2.6466894
 -1.9218351 -0.7458051 2.6246934
 -2.0946159 0.1255107 2.1656177
 -1.9194698 -0.7464399 2.6319416
 -1.8867329 0.4548669 2.3198426
 -1.9360745 -0.7914013 2.6266491
 -1.9675674 -0.8728923 2.6066101
 -2.1830888 -0.4720290 1.9156901
 -1.9444973 -0.7914606 2.6346128
 -1.9009491 -0.6897998 2.6799257
 -1.9532901 0.4744776 2.3863039
 -1.7825773 -0.4199550 2.9853225
 -1.9577024 0.9527699 1.4589640
 -1.7211719 0.4951394 2.2568724
 -2.2198443 -0.2414447 1.8168015
 -2.3616893 0.0974209 1.2291886
 -2.2780893 -0.2542292 1.8581169
 0.3396058 0.5998146 1.7711884
 0.9687544 0.5593127 1.9555110
 -1.6856607 0.3488886 2.4915769
 -2.3610158 0.0732614 1.2829952
 -2.2120268 -0.5925743 1.7701842
 -2.1946337 -0.2310795 1.7865522
 -2.5132568 0.4490941 0.6329997
 -2.7115259 0.5961831 0.4856889
 -1.8286350 0.5659256 2.1289916
 -2.3904839 0.0613976 1.3535619
 -2.1884975 -0.5958223 1.7568542
 -2.3524654 0.0731613 1.2253525
 -2.3811996 -0.8272554 1.8701469
 -2.1634498 -0.4308222 1.8629756
 -2.3672216 0.0616234 1.3241975
 -2.1673019 -0.7375153 1.6577395
 -2.1806650 -0.4368698 1.8853580
 -1.8953766 0.5247719 2.3339481
 -1.7071425 0.3563801 2.5427876
 -2.1380246 -0.3730530 1.8901967
 0.8960603 0.5550032 1.8684126
 -1.8658926 0.5774834 2.2134147
 -1.8204186 0.5605412 2.1119733
 -1.8633806 0.5749118 2.2164018
 -1.8193156 0.5463067 2.0998681
 -1.8611939 0.4296013 2.1035089
 -2.3314803 -0.0943647 1.5644399
 -2.2189186 -0.1393801 1.5931333
 -1.8288611 0.4201949 2.0477045
 -1.8755288 0.4368284 2.2433090
 -1.8603358 0.4095748 2.0823720
 -1.9008147 0.4576245 2.3624294
 0.8785699 0.5283921 1.9468517
 0.7005591 0.5115278 1.9222860
 0.2361870 0.5416906 2.0605006
 0.8839875 0.6194094 2.0447621
 0.6275200 0.4765877 1.8374103
 0.6966271 0.4493507 1.4305160
 0.7793775 0.3469917 2.1451335
 -1.9012527 0.4316982 2.2508841
 -2.4606819 0.1888649 1.1127803
 -2.0673881 0.1338902 2.1327066
 -2.1063981 0.0527177 2.0949514
 -2.5683396 0.2020036 1.1795293
 -1.9285061 0.4594269 2.3776934
 0.1577203 0.4531753 2.0529366
 -0.8501232 -1.1952225 2.1303203
 1.0561062 0.6017943 1.0859103
 1.2815541 0.7057334 0.8853531
 0.9968089 0.4974965 1.3077464
 -0.2076481 0.2356100 2.0884721
 0.9278043 0.2621920 -0.3577280
 1.0971588 0.5001036 2.1143095
 0.7586958 0.3555250 2.1089108
 1.1827762 0.5224642 2.0060649
 -0.1458748 -0.7274013 2.1663725
 0.7546679 -1.3732437 1.6972997
 1.3847579 0.3090476 2.2012031
 1.0373456 0.2766263 2.1748772
 0.5020407 0.3790490 2.0304384
 1.2297906 0.3591220 2.0645981
 1.1710629 0.6079469 1.1204453
 -0.8576552 -1.1961304 2.0557468
 -1.9780273 -0.7213196 2.3684995
 -1.1132125 -1.4512527 2.1157305
 1.2682307 0.3635584 1.9079888
 0.9943811 0.2755326 2.0981114
 1.3595376 0.3347102 2.0451009
 -0.1093988 -0.7508584 2.2533126
 1.3216082 0.3700095 1.9623412
 1.0384992 0.2874444 2.1199534
 -0.8462808 -1.3779643 2.3102059
 1.2148911 0.2793232 2.0728209
 -1.1018410 -1.4428651 2.2915902
 0.0934223 -1.1842588 2.0259345
 0.1372588 0.3768565 2.4219730
 0.0811044 0.3516262 2.2769296
 0.0962023 0.3458797 2.3397706
 -0.1533087 0.2498880 1.9366114
 0.0177939 0.3235317 2.2677715
 -0.0126948 0.3095733 2.1765039
 -0.0902827 0.2914843 2.2105067
 -0.0665605 0.2814523 2.3694272
 -0.9232610 -1.2662427 2.2332118
 -0.8701265 0.0942310 2.4655154
 -1.0491475 -0.6874195 2.4505475
 -0.8690646 0.1002742 2.5691171
 -2.0344129 -1.1607587 2.4810817
 -1.0547030 0.0896348 2.6238024
 -2.0049663 -0.8798275 2.6467559
 -2.0501776 -0.9059950 2.7391036
 1.6677945 0.8418248 -0.1091680
 2.6407869 1.2570562 -0.4960422
 1.9979104 0.9877425 0.0791165
 2.0120482 0.9892699 0.1003229
 2.0062253 0.9901681 0.0942969
 2.1078560 1.0079987 0.0722513
 2.0556445 0.9988924 0.1776108
 2.3366108 0.9523447 0.2718229
 3.5829885 1.6457340 -0.9676775
 2.3589301 0.9412408 0.2370058
 4.0328574 1.5760043 -1.4836258
 2.3668704 0.9536185 0.2459454
 2.3547857 0.9515885 0.2588628
 5.4394069 -0.4356244 -1.1937344
 3.6563053 1.4363174 -0.9032870
 -1.1032455 -1.3610948 2.1593800
 -1.1357337 -1.3800994 2.1399591
 1.0493267 0.3720030 2.1525719
 1.1243962 0.3759880 2.2032349
 1.2452589 0.2761319 2.1106179
 0.9763735 0.3484680 2.2159493
 0.0417695 -1.1932137 2.0785041
 -0.1915245 -0.6890429 2.0755398
 -1.9496537 -0.6282183 2.4443700
 -0.0011802 -1.0753877 2.0190530
 1.1192039 0.2124956 2.1824787
 -0.8226607 0.1450561 2.4353094
 -1.2590146 -0.3816896 2.5678196
 -1.1868247 -0.6598921 2.4722357
 -0.8870101 -1.4833323 2.5691071
 -1.1704665 -0.0050411 2.5800090
 0.7811773 -1.1819458 1.8573825
 -1.1112922 -0.7503091 2.4592385
 -1.0429035 -0.7950810 2.3036375
 -1.1070679 -0.0803316 2.6561954
 -0.1487944 -0.7230726 2.1719773
 1.0797346 0.6235330 1.0170408
 0.5380561 -0.6591215 2.0302246
 1.2562308 0.6811960 0.8630544
 -1.1256835 -0.4559703 2.5614703
 -1.2588862 -0.5452217 2.7151463
 1.0666832 0.6119136 1.0076071
 0.7412430 -0.7767524 2.2071545
 -1.1147451 -0.0863903 2.6722031
 1.1538867 0.1999919 2.3944945
 0.8527889 -0.8816339 2.0441642
 0.9690584 -0.6987957 2.2846129
 1.0505252 0.6051734 1.0851921
 -1.1159734 -0.1689521 2.6067858
 -1.1212575 -0.4497493 2.5257640
 0.7404744 -0.7814497 2.2038517
 -1.1840521 -0.6667772 2.4795992
 -0.0205340 -0.7434785 2.1935253
 -1.1229374 -0.3993518 2.5266914
 -1.1171376 -0.7344010 2.4292450
 -1.1229819 -0.5257469 2.5080881
 -1.1212398 -0.3368292 2.5440042
 -1.1214736 -0.3406196 2.5572684
 -1.1699704 -0.4537120 2.5282393
 0.4748668 -0.8096531 2.3556111
 -1.1202065 -0.1673170 2.5630767
 -1.0475832 -0.8507541 2.4483621
 -1.1721928 -0.5595873 2.4792247
 -0.7657403 -0.7628955 2.3830891
 -1.1149113 -0.7311461 2.4158638
 0.5128144 -0.8526655 2.4136350
 0.0008551 -0.7679353 2.2559738
 -1.1265389 0.0761636 2.7225208
 -1.1189493 -0.7485982 2.4720907
 0.9226384 -0.8347602 2.3372688
 0.7265403 -0.7444104 2.0985518
 -1.1783521 -0.4642221 2.5580184
 -0.4788020 -0.8211655 2.4838490
 1.1034752 0.1720129 2.3407903
 -1.1058439 0.1391985 2.5305357
 -0.7652659 -0.7743025 2.4123142
 -1.8144660 -0.3660223 2.6234424
 1.1357540 0.1854064 2.3892126
 -1.8752660 -0.3859248 2.8296638
 -0.7702911 -0.7681916 2.3825395
 1.6678641 -0.5759768 2.1231179
 0.3413946 -0.9107347 2.6042006
 -1.1364115 0.0684633 2.8284771
 1.6806221 -0.3324389 2.0848181
 1.9134085 -0.9856198 2.0631926
 0.3748014 -0.9469931 2.6602161
 1.4258416 0.0718707 2.3434460
 1.1410682 0.1911972 2.3953207
 1.4130663 0.0222953 2.3171551
 1.4647528 -0.2105699 2.3076315
 1.5025889 -0.3197343 2.3288321
 1.5432788 -0.4058965 2.2590101
 1.4379776 0.0223653 2.3343449
 -0.3991767 -1.0011767 2.8775675
 0.5868149 0.3545660 1.6419960
 0.6816838 0.3669446 1.6189773
 0.9979444 0.5013972 1.3082091
 0.8938280 0.3941479 1.5376160
 0.9103749 0.3976616 1.5497650
 1.2551312 0.5173172 1.3104750
 2.0846658 1.2110302 -0.5146675
 0.9263185 0.3190610 1.7579732
 1.2514589 0.5361657 1.4276239
 0.8513075 0.3109154 1.7394454
 0.8980371 0.3169282 1.7448398
 0.9160598 0.3168916 1.7540822
 1.2055467 0.4349304 1.4688519
 2.1039739 1.2245135 -0.5100064
 0.9503062 0.3458239 1.8171659
 1.9533933 0.6719868 0.8726408
 -1.1205757 -0.0907793 2.6770566
 -1.1231405 -0.0899676 2.6520178
 0.6498702 -0.7714873 2.1614597
 -1.7946585 -0.5569440 2.6744623
 2.3015034 1.4755247 -1.2706506
 0.7928868 0.1714065 2.0861506
 0.7076519 0.4238613 1.4845700
 0.9465113 0.2295627 -0.2634546
 1.0926282 0.6277434 1.0327513
 0.8423822 -0.8493168 2.2483406
 5.4554787 -0.4384986 -1.1841609
 0.7639067 0.2098214 2.0132308
 1.0441939 0.3088683 1.7775731
 0.9083900 0.1517308 2.0472319
 0.9665899 0.1194660 2.2072167
 1.2121925 0.4358091 1.4769561
 1.1578609 0.3261298 1.7997940
 1.1548144 0.3156584 1.7498159
 1.1500574 0.3034965 1.7427508
 1.2779834 0.4117935 1.4828280
 1.1421052 0.1894058 2.0472033
 1.8678114 -1.8063188 1.8094324
 1.3535007 0.2820232 1.7803285
 1.8522317 -1.7138473 1.7449342
 1.6002643 0.5238725 1.2962711
 1.6877800 0.6010141 1.0949017
 2.0090919 0.7787566 0.7013370
 1.3918039 0.3815016 1.6219072
 1.7929351 0.4606120 1.4177653
 1.9384145 -1.8322619 1.8596284
 1.8980492 -1.8123964 1.8262576
 1.8686594 -0.3196770 2.4502625
 1.6971538 0.0912636 2.3241427
 2.8033774 -1.6606332 1.6009297
 1.9764807 0.7579616 0.6827507
 1.9871259 0.7688235 0.6894491
 1.8594891 -1.6831980 1.8366741
 2.1976895 0.7808034 0.7233701
 2.6166561 -1.0865642 0.7495564
 1.6255906 0.6828292 -0.1739233
 2.6292083 -1.1090523 0.7581304
 2.0582716 0.5820386 0.9646748
 1.4851091 0.4492265 1.4366801
 1.9438688 1.1298726 -0.2194228
 1.6325517 0.6680140 -0.0915935
 2.6163437 -1.1028719 0.7330623
 1.6321086 0.6914482 -0.1454965
 2.5365920 0.7826269 0.6833182
 1.8794750 -0.9173525 2.0870976
 2.2121172 0.7111337 0.8146636
 1.6364341 0.6947041 -0.1523908
 2.8269432 1.1515954 -0.2191885
 3.2151265 1.4996488 -0.9395149
 1.6454566 0.6731402 -0.0832424
 3.2157052 1.2624704 -0.5095118
 3.2948318 1.4053929 -0.8445643
 2.8050606 0.7792902 0.6983595
 3.1402528 1.1207900 -0.2620018
 2.7039225 0.7320946 0.6649229
 3.3693402 1.2106216 -0.3709969
 3.3874485 1.2226019 -0.3694482
 2.7510607 -1.6263051 1.5761250
 3.2576442 1.1596422 -0.2377625
 2.7502935 -1.6240400 1.5694616
 1.6081823 0.6776042 -0.1739829
 2.7661788 -1.6299186 1.5758338
 1.7836806 0.6537563 1.1292599
 1.5992427 0.5220836 1.2928413
 1.7480719 0.6435279 1.1007900
 1.5479593 0.4475521 1.5675298
 1.0550538 0.3169563 1.7691299
 1.6309463 0.4956450 1.3672343
 2.5670295 -1.1186280 0.7268581
 1.9393301 0.6993151 1.1324198
 2.6243637 -1.1141092 0.7482013
 0.8293633 0.2055677 1.9424336
 2.1619034 0.6281456 1.0285772
 1.0311584 -1.0568901 2.3874016
 1.1473701 0.3116006 1.7629234
 1.5259786 0.4247720 1.4945189
 2.1152306 0.4737109 1.3210709
 1.4011661 0.2984354 1.8613654
 2.1700454 0.6320339 1.0357863
 2.3838239 0.4868242 1.4120603
 1.8818822 -1.4892766 1.8790580
 1.8485889 -1.7766070 1.7586993
 1.8875448 -1.3786366 1.8932605
 1.8086457 -0.1617832 2.2096376
 1.4079936 0.0823138 2.3452926
 1.4632876 -0.3030545 2.3179662
 3.0017948 0.5966123 1.1865562
 2.7922361 -1.6173338 1.6110264
 1.4309144 0.0623215 2.4120221
 1.8701450 -0.1301965 2.2839355
 2.7207279 -1.3427035 1.7229762
 2.2280483 1.1032161 -0.1312793
 2.7933986 1.5304186 -1.1132848
 2.7648728 1.5030243 -1.1054134
 2.5554183 1.3320117 -0.6890108
 2.2418449 1.1215641 -0.1463938
 3.0653865 1.5991678 -1.6504339
 2.2000957 1.0883687 -0.1674037
 2.5727365 1.3304213 -0.7118268
 1.7574438 0.5594300 1.1635350
 2.3810012 1.1943840 -0.7113090
 3.0656915 1.5984985 -1.6943620
 1.7586397 0.5577371 1.1706173
 2.5796103 1.1979560 -0.3656464
 2.6166823 -1.1049407 0.7383649
 1.6814992 0.5984503 1.0776813
 2.7566273 1.4908185 -1.1028929
 3.0764647 1.5978760 -1.6989102
 2.5742469 1.0240232 0.0422307
 2.1058156 1.0145197 0.0786985
 1.7895087 0.4635975 1.4403598
 2.9227426 1.4614795 -1.0186330
 1.6942976 0.6070352 1.0944937
 1.9654553 0.5497324 1.2077171
 2.1128709 1.0168626 0.0788013
 2.6340041 0.9203891 0.2951696
 1.8265976 -1.5266006 1.8387865
 2.7271459 1.4774413 -1.1056908
 2.5113335 1.6309469 -1.2835263
 2.5321357 1.2938994 -0.6808167
 1.3970757 0.2871535 1.8710017
 1.8926346 -1.3204793 1.9242215
 2.6373551 1.2531830 -0.4653991
 2.6295917 1.2486980 -0.4830163
 2.0559754 0.7186138 0.8312486
 2.0304296 0.7059615 0.8542992
 2.6195011 -1.1127325 0.7503622
 2.6694031 1.2691187 -0.4441848
 2.5333586 1.1737252 -0.3739478
 2.5896063 1.2131168 -0.3555372
 2.5536582 1.1969237 -0.3542265
 1.7843816 -0.5462277 2.2453022
 2.6620402 -0.7452146 0.9933749
 3.3568296 1.4900209 -1.0730419
 2.8178902 1.1484069 -0.2243543
 2.7251511 -1.6690136 1.5623620
 3.3563879 1.4876068 -1.0734288
 2.7150095 -1.5370280 1.5914551
 3.3944125 1.5120523 -1.0769364
 3.6013515 1.4087828 -0.8660253
 1.7103688 -0.3410131 2.2417834
 3.1151562 1.6466581 -1.6605908
 2.7120080 0.9413354 0.2674658
 3.3157489 1.4752508 -1.0779626
 3.4244113 1.5521940 -1.2639420
 3.2621255 1.1739391 -0.2814922
 2.7328529 -1.6668905 1.5558987
 2.4286525 0.7156760 0.8410005
 2.1272104 1.2450540 -0.4938443
 3.3061056 1.4195596 -0.8384845
 2.8117580 -1.6370652 1.5781604
 3.3734565 1.2144005 -0.3763217
 2.2279637 1.1070130 -0.1434417
 2.8875136 0.8447975 0.6106556
 2.8565679 0.8262851 0.5999237
 2.8619869 0.8251454 0.6074196
 3.3645635 1.2037543 -0.3486345
 2.7988453 0.8443884 0.6579313
 3.3823764 1.2232568 -0.3804381
 3.9650235 0.9704155 0.1761156
 5.5091329 -0.0694822 -0.7379159
 5.7558398 -1.1200464 0.2960874
 5.7642107 -1.1360695 0.3084087
 4.0610127 0.9515216 0.4228655
 5.8465433 -0.9295976 -0.6049052
 5.6405330 -0.8504072 -0.5683360
 4.7023969 1.0000311 0.0907530
 1.5344232 0.4238266 1.5189880
 2.5376763 1.3034155 -0.6300644
 1.7877672 0.5755916 1.1560754
 1.8398288 0.6109872 1.1361074
 2.0253057 0.7052323 0.8554690
 2.0733790 0.4896841 1.2381867
 3.2125015 1.4730204 -1.2252944
 2.4449782 0.7174584 0.8498988
 3.2460225 1.4846936 -1.2482736
 2.9737303 1.1967303 -0.3255768
 3.3458750 1.4969236 -1.0557805
 3.4779539 1.5479258 -1.0923877
 3.3358243 1.4921900 -1.0582216
 3.2106678 1.2670592 -0.5121118
 2.6198242 0.3174276 1.4476446
 3.3548212 1.2544745 -0.5301515
 2.8453412 -1.7658049 1.7768947
 3.2653258 1.1424097 -0.1318014
 3.6544013 1.4438982 -0.9049974
 3.5393476 1.2611970 -0.4875878
 2.5721185 -0.7113664 1.8812797
 3.5150445 1.2482151 -0.4915985
 3.5994737 1.4080414 -0.8660213
 2.5355682 -0.5133997 1.8850131
 3.5689123 1.2744608 -0.4722984
 3.2764606 0.9831815 0.1248279
 1.9519066 0.6959588 0.8119221
 3.3920579 1.2763096 -0.5356309
 3.3973575 1.2815740 -0.5344892
 2.4286890 0.8981711 0.3943790
 2.4299140 0.9304060 0.2607221
 5.2752881 0.9704495 -1.0534692
 1.9525119 0.6950740 0.8090687
 3.3025622 1.2219173 -0.5824539
 3.0344625 1.2252576 -0.2595302
 2.7658885 1.0844793 -0.0723265
 1.8226341 0.6026833 1.0232022
 5.4253550 -0.4408823 -1.1564579
 5.3303919 0.6990017 -1.1574829
 2.5161471 0.8533396 0.4914728
 3.3953824 1.2203649 -0.3764189
 2.5354471 0.8632500 0.5120745
 2.6630008 -1.2570347 0.7518438
 3.2861586 1.1882250 -0.2570542
 2.6583412 0.9306282 0.3376933
 5.5287566 -0.4846756 -1.0979813
 3.5674524 1.2652489 -0.4738932
 2.8126459 0.9004081 0.4037818
 3.2349849 1.0726407 -0.0636873
 3.8356707 1.3827319 -0.7631058
 2.7958605 0.8950071 0.3683783
 3.2492936 1.0781311 -0.0188931
 3.5328596 1.1503086 -0.2143636
 3.2433028 1.0791413 -0.0470961
 5.3595815 -0.4161712 -1.6585307
 2.8102682 0.9063302 0.3913417
 3.9492812 1.3044095 -0.5787009
 3.5617893 -1.1009641 0.3483711
 3.5642073 -1.1024274 0.3664008
 5.1604047 1.0856864 -1.5164071
 4.0877719 1.2336841 -0.3927102
 5.3127322 0.1128711 -1.4558357
 3.1821263 0.9360515 0.3224889
 4.0798988 1.2422312 -0.4147978
 4.1060786 1.2599117 -0.4047672
 4.2267985 1.3177421 -0.6254432
 5.2322364 0.9122449 -1.3116125
 5.1751928 0.8977611 -1.3211793
 2.6117835 0.9055938 0.2445372
 3.2623572 1.1744299 -0.2696840
 2.7176280 0.9392420 0.2755584
 2.8283341 0.9304801 0.4269335
 2.6537948 -1.2761648 0.7748644
 3.3468275 1.2222389 -0.3576171
 2.3840544 0.8322217 0.5785360
 3.5326588 1.2431273 -0.5059469
 5.1902943 0.6445835 -1.7473246
 3.5659466 1.2628562 -0.4757921
 3.8457081 1.3899782 -0.7582381
 3.4826086 1.1242638 -0.1341441
 2.9014807 0.9461723 0.2941460
 5.2863135 -0.0711184 -1.5977808
 5.3349667 0.3436136 -1.6710979
 4.9111619 1.6947933 -1.5678517
 5.3547444 -0.1248657 -1.4936910
 5.3522258 -0.0723680 -1.5842280
 2.5374074 0.8640340 0.5156586
 5.1822248 0.8890013 -1.6523701
 3.5489533 -1.0927289 0.3479223
 3.9582875 1.3137681 -0.5729427
 2.4280963 0.6807043 0.9376849
 5.2811217 0.6650050 -1.2222004
 5.2557311 -0.0994586 -1.5060787
 2.4303234 0.6888344 0.9519721
 5.3856788 0.2766272 -1.0411804
 2.7936325 0.5839366 1.1797376
 3.3191259 0.9887969 0.1826641
 5.3475304 -0.0999012 -1.3513770
 3.2741153 1.0918838 0.0318562
 2.4315491 0.9284568 0.2546424
 3.3619096 1.1126611 -0.0817511
 2.4368911 0.9391858 0.2891587
 3.6551147 1.4375464 -0.9013246
 2.6282532 -1.2462533 0.6982244
 2.7326097 0.9642850 0.2223556
 3.4142041 0.9110213 0.2486436
 4.0704141 1.2343990 -0.4086078
 5.3156114 0.4727727 -1.3052782
 4.0175266 1.1307983 -0.2259631
 3.3976886 0.9214277 0.4395644
 5.3910670 -0.1018574 -1.3380972
 5.4831986 -0.6646608 -1.2286636
 4.1018157 1.1964930 -0.2732709
 5.2434254 0.7940912 -1.3040905
 5.4869895 -0.4589197 -1.0205790
 5.4377260 -0.4352610 -1.1940247
 4.1318288 1.1418447 -0.1409704
 4.1247096 1.1407561 -0.1440327
 3.6845946 0.9230372 0.2928462
 5.2903075 0.9508190 -1.1048950
 4.1924844 1.1427144 -0.1788075
 5.2809825 0.9811616 -1.0403221
 3.5215976 0.9456411 0.3482326
 3.3914573 0.8026539 0.5689129
 5.4385805 -0.4194653 -1.1875883
 3.4864585 0.8009868 0.6302638
 4.4331303 1.1912841 -0.1144681
 5.6188855 -0.8291953 -0.9365399
 5.2447624 1.2752850 -1.0413301
 4.1522770 0.9787319 0.0315041
 3.4223466 0.8190039 0.6392847
 3.2547519 -1.5513070 1.2794051
 5.4936008 -0.2816292 -0.8355315
 4.5491180 1.1483982 -0.0058211
 5.5964885 -0.9522513 -0.8260575
 5.4738317 0.1142413 -0.8991287
 2.9736297 0.9455512 0.3138157
 5.3557930 -0.4022609 -1.6540835
 5.2439380 0.8972062 -1.6374723
 2.6300256 0.7203195 0.8599665
 5.3584280 -0.1245050 -1.4856564
 2.3817012 0.5600160 1.2076918
 5.3750725 0.0567893 -1.2913201
 3.2948620 0.9056128 0.4105562
 5.1901221 0.8989457 -1.3251292
 3.6032937 -0.2033351 0.7072122
 5.3623166 0.7251079 -1.1838535
 3.7023103 0.9426068 0.2445887
 4.4468546 1.3238550 -0.4934992
 4.3234820 1.1931643 -0.4267980
 4.3400812 1.0293789 -0.1626964
 3.8964958 1.0363808 0.1337049
 5.3677320 0.9438655 -1.2716100
 5.4582496 -0.1544733 -1.0201453
 5.2475929 1.4244751 -1.1781632
 3.4137900 0.8131161 0.6449779
 4.3602681 1.1142180 -0.1509555
 4.4053192 1.2346305 -0.3529696
 4.3976579 1.1555675 -0.1766810
 4.4219470 1.2436471 -0.3448666
 3.9718199 0.8010458 0.7468235
 5.3297405 1.0125827 -1.0115347
 4.4907327 1.1056359 -0.0846379
 5.6044455 -0.7704480 -0.6894550
 5.2433753 0.9054315 -1.1258408
 4.0953512 1.0027602 0.2287389
 4.4010262 1.1298500 -0.1081714
 3.9570897 0.8036038 0.7457959
 4.3362665 0.9715410 0.2781119
 2.7168369 -0.9839820 1.8497751
 3.2744880 -1.6219040 1.4004543
 5.4264655 0.1133008 -0.9146511
 3.2604263 -1.5689880 1.3342001
 3.5910397 -0.2058373 0.6376874
 5.3138843 1.2599496 -0.8367736
 3.3014791 -1.5844755 1.4107673
 5.5276732 -0.8796634 -0.7767695
 5.6131611 -0.9076541 -0.7441573
 3.9322643 0.8480953 0.5097356
 5.4284754 1.0850081 -0.5362911
 5.3950753 0.8636649 -0.6857893
 3.9569838 0.8520305 0.5834160
 4.2737732 0.8938531 0.5388023
 4.3399544 0.9713867 0.3035056
 4.0552607 0.8429797 0.6515858
 5.5738511 -0.2755465 -0.5491256
 4.0269976 0.8298318 0.6135900
 4.2077894 0.8721504 0.4831688
 4.1951771 0.9392464 0.4061019
 4.9615536 1.1055987 -0.0652421
 5.3968048 0.8633215 -0.6843489
 5.4001484 0.5246822 -0.7609971
 3.9501884 0.8556337 0.5822663
 4.5774283 0.9933665 0.2824504
 4.8577423 1.0674376 0.0505473
 4.9968262 1.1161361 -0.0283346
 5.5862913 0.1598880 -0.3578050
 4.9019127 1.0862464 0.0895970
 5.7067780 -1.0622934 0.6443009
 4.7890882 -1.2934668 0.8312658
 3.9878979 -1.2772800 1.1389452
 3.9875143 -1.3327376 1.0293444
 3.9899819 -1.3382692 1.0295190
 3.9910369 -1.2856483 1.1524068
 3.4325972 -1.0575935 0.2844836
 3.9868219 -1.3096628 1.0216990
 4.0000052 -1.2527014 1.2704427
 4.8787317 -1.1092092 0.9825273
 5.8513722 -0.9973204 0.4308366
 5.0264187 0.5779552 1.7748586
 5.0100503 0.5788546 1.7327458
 4.7785997 -0.1065674 1.4814172
 6.0332537 -0.2886421 1.0834811
 4.9335589 0.5625523 1.6147679
 4.4605594 -0.1480916 1.7666153
 4.1486807 -0.3163994 1.9766012
 3.9730320 0.5288147 2.0851986
 4.1367135 -0.2733956 1.7680930
 3.8946106 -0.2724795 1.9946562
 3.9443111 -0.2369151 1.8710852
 3.9426596 -0.2383051 1.9197975
 4.9648118 0.3357942 1.4537638
 4.5124497 -0.1779059 2.4755094
 5.7624149 -0.5815965 0.9980023
 6.0399046 -0.5385200 0.9434040
 5.7504511 -0.1384774 -1.0124651
 5.4540462 -0.1306394 -1.0063668
 5.7575202 -1.1224983 0.2973706
 5.6692414 -1.1942613 0.4685870
 5.6252251 0.2490072 -0.0535164
 5.7730675 0.9034262 0.1764658
 5.6326351 -1.3864019 0.4221742
 4.7960682 -0.8764080 1.1013088
 5.6958170 -0.9860313 0.4008214
 5.8569317 -1.3672360 0.3157972
 3.4315350 -1.0545710 0.2804489
 4.8551707 -1.1082461 1.0109371
 3.9725621 -0.2816169 1.6635003
 4.9062486 -0.8859206 1.1213385
 4.8275070 -1.0687798 0.9182023
 4.8414354 -1.0646821 0.9197417
 4.8971009 -0.8743253 1.0834172
 4.0577917 -0.1863424 1.7800511
 5.6303329 -1.3870000 0.4268672
 4.9667330 -0.5634065 1.3035668
 4.9065099 -0.8802312 1.1183976
 3.9410424 -0.2478892 2.0313885
 5.6995025 -1.3169441 0.4523197
 5.7074900 -1.2708086 0.4727882
 4.9268136 -0.5660609 1.3337096
 4.9554586 -0.5947068 1.3757443
 4.9105511 -0.5524427 1.2942389
 4.4028864 -0.1529370 1.7425174
 4.8532906 -0.2204146 1.6331947
 4.8935452 -0.3207488 1.4423759
 4.8336368 -0.2549765 1.5561604
 4.9143143 -0.3282305 1.4856474
 4.8486290 -0.2320287 1.5862103
 4.9233484 -0.3080523 1.5495729
 4.8358502 -0.2325847 1.5555794
 5.7156515 -0.4962598 0.9517403
 4.8354354 -0.0987622 1.5983697
 5.7058802 -0.4859049 0.9312326
 4.8820100 -0.1020055 1.7141448
 4.5784869 -0.1864722 1.9214152
 2.7916925 0.7084031 0.8688384
 2.6099975 -0.6162935 0.8761873
 3.8357880 0.8078370 0.6962647
 2.6308398 -0.6102538 0.8570665
 2.2856455 0.5850213 0.8606598
 2.6376441 -0.6212032 0.8294649
 5.6012940 0.9564761 0.4094362
 5.6229105 0.9686885 0.4179778
 2.6325922 -0.4040408 0.9132633
 3.8630476 0.7451357 0.6588579
 2.3804045 0.3953350 0.7574478
 1.6575832 1.3035750 -0.9214804
 2.3822849 0.8341659 0.6075910
 2.9993548 0.5987829 1.1225282
 5.5516868 0.9348655 0.3735586
 1.7397460 1.1995643 -0.4658823
 2.6238945 -0.3026141 0.9736875
 3.9951754 -1.1879992 1.2748678
 5.6997418 -1.2188020 0.4839605
 4.8384099 -1.0300784 0.9351391
 4.8678598 -1.2089363 0.8980910
 4.8172083 -1.2542582 0.8362629
 4.0091734 -1.2449754 1.3020473
 5.7072525 -1.2381840 0.4889613
 3.9964571 -1.1751522 1.2359477
 4.7874603 -1.2849796 0.8314521
 4.7938776 -1.2673224 0.8318952
 4.0218730 -0.9844465 1.4026124
 5.7297215 -1.2609328 0.5017130
 6.0047293 -0.5273330 0.9037113
 3.9902742 -1.0766749 1.2957592
 4.9625106 -0.5870098 1.3980101
 4.0133691 -0.9047301 1.4325653
 4.0147452 -0.8516132 1.4495432
 3.9957473 -0.8101754 1.5018883
 4.0127411 -0.9042639 1.4474488
 3.4294105 -1.0532315 0.2789713
 5.9511981 -0.4792133 0.8396503
 4.8432522 -0.7757755 1.0327404
 4.0096660 -0.8265840 1.5101019
 3.9264300 0.7119509 1.6997874
 6.1803646 0.6030625 1.4285387
 4.0261779 -0.7468479 1.5119108
 4.8476133 -1.0348829 0.9449325
 6.1151118 0.2738689 1.3738869
 4.8418870 -0.0892529 1.5197755
 3.9900720 -0.2819350 1.9093570
 3.1913474 -1.1493793 1.0041894
 4.8239808 -1.3920363 0.8038549
 4.8134308 -1.3725548 0.7673205
 6.0207238 0.4481360 0.5938605
 5.3725491 -1.0658212 0.8122195
 5.3692346 -1.0642496 0.7998851
 4.9223213 -0.8925685 1.1570884
 4.8330946 -1.0497025 0.8901658
 5.3991590 -1.0921375 0.8514569
 3.9250107 0.7131085 1.7679180
 4.7030902 0.7602854 1.2843772
 5.8754964 -1.0116116 0.4585563
 4.8863430 -0.8526166 1.0223935
 5.4229002 -0.5497710 1.0193703
 5.3811688 -0.9354025 0.8568239
 4.8841329 -1.2130356 1.1603175
 4.8813295 -0.8513818 1.0028149
 5.6722617 -1.4167984 0.4839643
 4.7182436 0.7721584 1.3517009
 4.9914494 -0.5781679 1.2430094
 4.9823241 -0.5705208 1.2128683
 4.9586163 -0.5895494 1.4495133
 5.7637687 -1.1510315 0.6249087
 4.9764657 -0.6737890 1.3869138
 4.8973904 -0.5384874 1.2506263
 5.4230256 -0.5616536 1.0228204
 3.9307015 0.7069027 1.7087815
 5.3415895 -0.9009876 0.9867667
 4.1399312 -0.2867413 1.6644720
 3.9709318 0.5401194 1.9757693
 3.9090381 -0.0505073 1.5765735
 5.2018623 -0.5173917 1.2290986
 3.8870533 -0.1575201 1.6502818
 4.9440823 -0.2440876 1.3220725
 3.8876047 -0.1349710 1.6925668
 3.8877335 -0.0041966 1.6151316
 4.0856967 -0.0906384 1.6974052
 5.9359069 -0.8096641 0.7804606
 4.4475808 -0.1326306 1.6310493
 3.9477398 -0.2292131 1.8415169
 5.7974777 0.6793719 1.3672155
 5.9304733 -0.8096083 0.7704591
 3.9635293 0.5452205 2.0337667
 3.9713464 0.5324742 1.9732292
 4.8696561 -0.1013662 1.6816193
 4.7793956 -0.1289424 1.6455976
 4.8636274 -0.1035957 1.6624513
 4.5146174 -0.1858390 2.4992764
 4.3987617 -0.1096905 1.3982229
 5.1200571 0.6458305 2.1123371
 4.7271900 -0.4114684 1.4117609
 5.3795333 -0.6671614 0.9095762
 4.8166680 -0.2744109 1.4794713
 4.7957268 -1.2676233 0.8288144
 4.7108626 -0.2629291 1.5420127
 4.1823559 -0.5468470 1.9992416
 3.9654086 -1.2179240 1.0532207
 4.0060687 -1.3975478 1.0177542
 4.8626475 -1.2959139 0.8982099
 4.0590587 -1.6770387 1.4006130
 3.7687178 0.3662480 1.4534769
 3.9982810 -1.0769007 1.2693719
 4.7866960 -0.6247024 1.1441892
 3.9688730 -0.9897531 1.1343313
 4.0065961 -1.0152899 1.3059298
 4.0003891 -0.9725637 1.3301051
 3.9981689 -0.9474031 1.3558425
 3.9682956 -0.9045717 1.2994432
 3.9938214 -1.0018805 1.3900355
 3.9714341 -0.8385168 1.2224733
 6.1773605 0.6037112 1.4226946
 5.1700549 0.6242201 1.9275694
 4.4489121 -0.0264376 1.5993799
 3.9047415 -0.0493959 1.5139161
 3.8599601 -0.2154770 1.9513417
 5.8858266 0.5314062 1.5217031
 5.0342908 0.5526379 1.8202076
 4.1233420 -0.3264771 1.8370054
 4.5128036 -0.2265115 1.6239830
 4.3147264 -0.2780121 1.8205372
 3.9396877 -0.2653458 1.9444196
 3.9963238 -0.7888277 1.3583848
 3.9684949 -0.8539448 1.3323218
 2.5698619 -1.2709436 0.6473341
 3.9266925 -0.2953785 2.0729001
 3.7994864 -0.4973304 1.4583389
 3.7922363 0.4196478 1.6262383
 5.1737328 -0.6658284 0.7164021
 3.8318768 -0.2784453 1.4504910
 4.1854763 -0.3767145 1.2916739
 4.7529845 -1.2109805 0.8085299
 3.8315017 -0.2839801 1.5381345
 2.5699832 -1.2742426 0.6520568
 4.0916386 -0.8094075 1.1090280
 3.8313634 0.1742896 1.3785950
 3.9124455 -0.2800881 2.0312006
 4.5051570 -0.3720182 2.0337565
 4.7804694 -0.7032568 1.0291890
 5.0941391 -0.6419678 0.9956906
 5.0821347 -0.6390662 0.9824690
 4.7858167 -0.7457649 0.9697893
 5.0962133 -0.6429525 0.9991422
 4.8126926 -0.4141722 1.1194663
 5.0703850 -0.6398953 0.9733059
 4.5900712 -0.3270088 1.1353922
 4.0870929 -0.5536402 1.4536996
 3.8306236 -0.2798955 1.5639857
 4.7777677 -0.2914280 1.5171365
 3.8556986 -0.4000722 1.6938646
 3.8781722 -0.4140640 1.8632809
 3.8828061 -0.5910965 2.1082704
 3.8558047 -0.3429622 1.7718498
 3.9831100 -0.6064290 2.7583106
 3.8770795 -0.3635144 1.8992678
 3.8919599 -0.2907055 1.6765015
 4.4249129 0.2105627 1.5120640
 3.8737824 -0.3465025 1.8145958
 3.8676987 -0.3647032 1.8553329
 4.7170744 -0.2340634 1.4172155
 3.8778322 0.1888252 1.5723354
 3.9284394 0.2336286 1.7709986
 4.9391556 -0.3796007 1.9495890
 3.8477800 -0.3340434 1.6685205
 4.7822247 -0.3954822 1.5969788
 3.8436863 -0.4502676 1.6120976
 4.5146890 -0.3108205 1.9562763
 4.1016150 0.2488184 1.8670765
 4.4393415 -0.2269462 3.0052903
 4.8778505 -0.6322458 1.3215524
 1.8328208 -1.4875275 1.8432931
 4.7833338 0.1642466 1.3029367
 4.8315630 -0.6610096 1.2747298
 4.8467555 -0.7325709 1.2395321
 4.6989427 0.1595917 1.3135734
 4.8759384 -0.6334800 1.3093256
 4.8477716 -0.6287036 1.2806346
 5.0512118 0.4372308 1.3557280
 4.7289858 0.4055822 1.4199599
 2.5402675 0.8702586 0.5232232
 1.1820801 0.2924484 1.7811985
 1.6643562 0.0818922 2.2924378
 4.3816829 -0.2903640 1.5013154
 1.7378724 0.0159480 2.2462876
 4.7407641 -0.2649424 1.4760325
 1.7739078 -0.3610679 2.2231388
 4.8039098 -0.3896223 1.4854453
 1.3601285 0.3622237 1.6217563
 4.8425603 -0.2958969 1.5337963
 1.5604404 0.0933711 2.3133759
 4.3757997 -0.2522408 1.5513563
 1.7368876 -0.1104542 2.2652409
 1.6016910 -0.3492628 2.2602971
 4.8083577 -0.4125000 1.1202652
 1.5686991 -1.7945802 1.8163441
 4.8181410 -0.6962308 1.0891519
 1.4467199 0.3488310 1.6110396
 5.3745418 0.4609824 1.2945060
 4.7688608 0.1951786 1.4105626
 4.7942472 0.1655556 1.3228599
 5.3682532 0.4594109 1.2910571
 4.8017154 0.4180238 1.4030178
 4.8708587 0.4407475 1.4164912
 4.9571762 0.4690609 1.5020163
 4.7892590 -0.4378479 1.4632636
 1.3900210 0.2743322 1.8224510
 4.8464746 0.4241286 1.3791693
 4.7410278 -0.2263879 1.4587934
 4.8241243 0.4187952 1.3541543
 4.6113353 -0.2621705 1.4519044
 4.7587209 -0.2520050 1.4434023
 4.8059840 0.4227760 1.4050443
 4.7393370 0.3849095 1.4693650
 4.7142558 -0.2559010 1.4448217
 4.6326814 -0.2687236 1.4916164
 4.8091407 0.4071272 1.3197123
 4.7811394 0.4087272 1.4369172
 1.1144707 0.2998241 1.7837684
 4.2915215 -0.3001707 1.5144496
 0.8892121 0.2206102 1.9500070
 1.2338895 0.3242528 1.7058747
 4.1236987 -0.5460383 1.7483708
 4.1103034 -0.5694627 1.6341794
 4.4261565 -0.3915781 1.6682559
 3.9005094 -0.5207255 2.0680275
 2.5119519 0.5217140 1.3359560
 1.4570553 0.3311701 1.5377452
 2.4057276 0.4672430 1.3871202
 1.3866558 0.2820235 1.8376426
 1.2303697 0.2835051 1.8184338
 1.5012398 0.3605727 1.6335891
 4.8032150 -1.1987883 0.9377998
 4.7976828 -1.0279757 0.9906866
 4.8083711 -1.0277811 1.0023319
 4.8002090 -1.0286369 0.9871777
 4.4389000 0.5436575 1.1638056
 4.8149338 -0.8602744 1.0691954
 4.8241086 -0.7945798 1.0754968
 4.8537073 -1.0417966 1.0672349
 4.8038230 -1.4480630 0.9482994
 4.4478216 0.5367834 1.1794156
 4.7883615 -0.8531827 1.0352194
 4.7820020 -0.8524216 1.0391029
 4.7849183 -0.6700839 1.0646871
 4.7533040 -0.4698568 1.1032114
 4.7732348 -0.4148331 1.0817189
 4.7655401 -0.4714688 1.1140630
 2.0932851 0.5303633 1.2505215
 4.8807435 -0.7780133 1.1834695
 1.7760830 0.4499383 1.4247684
 4.7731729 -0.1190628 1.2108254
 2.1213627 0.5299646 1.2881485
 4.5651584 -0.2450556 1.5174601
 4.6610432 -0.2629708 1.4492069
 4.8066258 0.4285497 1.4908102
 4.3779941 -0.2651761 1.5500425
 4.7609754 -0.2485886 1.4405016
 4.7552996 -0.2565409 1.4321125
 4.7789545 -0.2586200 1.5051069
 5.3448143 0.4497927 1.2692057
 4.7816916 -0.3996336 1.4484771
 4.7292433 -0.2975442 1.4689906
 4.6277018 0.2231108 1.4886553
 4.7632833 -0.4092284 1.4261661
 4.8032503 -0.2514887 1.5459397
 4.5828905 -0.3132589 1.5850676
 4.5757570 -0.3143018 1.5706103
 4.2650261 -0.3555393 1.6814694
 4.6285868 -0.3105091 1.5774800
 4.5352750 -0.3192076 1.5999037
 4.1823025 -0.3509735 1.6034747
 4.3751101 -0.4233740 1.5866585
 4.4087319 -0.3434243 1.6616120
 4.6997871 0.2931588 1.6212833
 4.4843841 -0.4386079 1.6383519
 1.8571438 -1.7203739 1.7407144
 0.9904680 -1.5916424 1.9553629
 1.0466452 0.2197315 2.0381942
 2.2003231 0.5582905 1.2461951
 2.6326480 -1.2103510 0.6657299
 1.2103810 0.2402213 1.9459820
 0.7211085 0.2309208 2.0771594
 1.1875470 0.2183267 1.9914026
 1.4894905 0.4562819 1.4446499
 1.0578105 0.2119406 1.9974167
 1.3526706 0.2357087 1.9653201
 1.9026978 -1.6203206 1.7843852
 1.1468391 0.1943290 2.0578842
 2.6377556 -1.1066276 0.7351333
 1.8216817 -1.4906921 1.8177201
 2.3539011 0.8285486 0.5152255
 4.4958291 -0.3246563 1.6183832
 1.8943433 -1.3199488 1.9278922
 1.8717619 -0.8344083 2.1442158
 4.7179713 -0.2998695 1.5515517
 1.5826793 -0.3554676 2.2695947
 1.8306061 -0.1283484 2.2303011
 2.0816176 0.5089955 1.2324772
 1.5532690 0.0758216 2.3065140
 4.6708012 0.2805310 1.6522543
 4.4176111 -0.4101580 1.5790132
 4.7501850 0.3000628 1.6197118
 1.4884977 -0.3548389 2.2844851
 1.5848912 -0.0313437 2.2875698
 4.6693153 -0.3108193 1.6060748
 1.7245047 0.0861351 2.2798307
 1.8850077 -1.0077893 2.0213308
 1.8261228 -0.0468263 2.2346597
 4.6177773 0.2831339 1.6517258
 2.2126565 0.5619114 1.2565376
 1.6891764 -0.3623521 2.2427044
 1.7916665 -0.5465295 2.2438135
 4.7992849 -0.4008664 1.4758185
 1.8017460 -0.3335598 2.2446039
 1.8020035 -0.3512383 2.2244205
 1.9463311 0.5248698 1.2842317
 4.6086450 0.2852677 1.6431210
 1.7872226 -0.1096561 2.2403443
 1.8090910 -0.1000174 2.1978407
 1.7800815 0.0129877 2.2476659
 1.6623555 0.0599093 2.2742524
 1.3811530 0.3473476 1.6550044
 1.4396651 0.4275153 1.5003802
 1.2950363 0.3131358 1.7183594
 0.2154636 0.0640078 -0.0443226
 0.9023429 -0.8219903 2.2207508
 4.7161274 -0.6892946 0.9613188
 1.1876467 0.2630765 1.8623197
 1.0732414 0.2404648 1.9186928
 1.3315606 0.2481775 1.9568329
 1.3712130 0.2949529 1.7917409
 1.1294063 0.2660024 1.8475347
 1.1631027 0.2334237 2.0480556
 1.8123761 -1.6587731 1.7578936
 1.3695552 0.2944871 1.7955976
 1.3847835 0.2816385 1.8396960
 1.8970122 -1.6214939 1.7805262
 1.4170294 0.2075106 2.0878310
 1.2134954 0.2341160 1.9324800
 1.8134133 -1.4470958 1.8210871
 1.1322224 0.2257356 1.9575881
 1.9043018 -1.5648394 1.8273705
 2.5996196 -1.5021924 1.6194916
 1.1639054 0.1881044 2.0054214
 2.4148381 1.5601723 -1.2923051
 1.8057213 -1.4589902 1.8631378
 1.8362911 -1.4818830 1.8438746
 1.4322376 0.2040188 2.0549066
 1.1991014 0.1864891 2.0910389
 1.0235304 0.0982410 2.1525297
 1.1634771 0.2064135 2.1789544
 4.7374105 -0.2611759 1.4178803
 1.8577323 0.0738233 2.2066727
 1.5161313 -0.3160919 2.2783296
 1.7948971 0.0927185 2.2618279
 1.6608778 0.0640606 2.2799375
 1.5212488 -0.3881248 2.2818818
 1.5016167 -0.2002788 2.3031099
 1.5723407 -0.3747830 2.2690485
 1.7241641 0.0099022 2.2718842
 1.6072607 0.0602077 2.2907398
 1.5561175 -0.1317681 2.2887290
 1.4902449 0.0399918 2.3091047
 1.4826618 0.0470185 2.3294306
 1.4891070 -0.0162740 2.3139429
 1.7443885 -0.7035353 2.1962969
 1.6971740 -0.2920500 2.2291884
 1.6824989 -0.1084744 2.2469952
 1.6946291 -0.3587153 2.2420959
 1.6472651 -0.0924366 2.3307405
 4.4731812 1.2808703 -0.4239078
 2.1015623 0.7825510 0.6666014
 2.1564946 0.7571914 0.7026552
 2.0148726 0.6996295 0.8442373
 2.1356900 0.7565255 0.6912715
 2.8436191 0.8205671 0.6167688
 2.1443028 0.7626536 0.6924751
 2.6751082 0.6817937 0.7844800
 2.1429067 0.7609243 0.6961125
 2.2608366 0.8628554 0.5074916
 5.4360085 -0.4136859 -1.1859511
 2.4655645 0.9216487 0.3680235
 1.9686139 0.5480719 1.2173773
 2.8692493 0.7052453 0.9202166
 2.5195777 0.5858371 1.2017448
 1.8989424 -1.1937879 1.9704610
 1.9002799 -1.2563092 1.9595751
 4.7486138 -0.2535600 1.4223441
 1.8870105 -1.0758560 2.0155189
 1.8827413 -1.0780185 2.0103524
 4.4260597 -0.2829842 1.4869112
 0.9078317 0.0180458 2.4296210
 1.7887347 -0.6986564 2.1891963
 1.8242974 -0.1564519 2.2312520
 1.0516375 0.1436087 2.2439821
 1.0540259 0.1397451 2.2330470
 1.8475872 -0.3683285 2.2145722
 1.8278153 -0.2659673 2.2304304
 0.9987947 0.1146021 2.2005987
 4.6846943 -0.2589691 1.5038415
 0.9588711 -0.7229930 2.3363111
 1.4940548 -0.3818538 2.2907438
 0.9625466 -0.7186409 2.3317652
 1.7276789 -0.3523673 2.2277577
 1.5811034 -0.3491825 2.2934251
 0.9162096 0.0258059 2.4142897
 1.7503053 -0.2832310 2.2298443
 1.5837384 -0.3513604 2.2786131
 1.4482594 -0.3176709 2.3088233
 1.4418700 0.0760788 2.3435004
 1.8463069 -0.3552276 2.2304091
 1.4696276 -0.3706374 2.3015800
 1.5108176 -0.1894450 2.2997851
 1.8225819 -0.0471460 2.2303953
 1.6395044 -0.3709514 2.2498977
 1.7967148 -0.2295391 2.2259171
 0.9561206 -0.4302964 2.4611409
 1.8354770 -0.3498199 2.2845852
 1.6780440 -0.3605588 2.2874448
 1.5477997 0.0784541 2.3199663
 1.5517756 -0.0616703 2.3175981
 1.5465237 0.0719437 2.3118761
 1.7858499 -1.7807512 1.8122201
 1.8874246 -1.5140803 1.8303713
 2.4975019 0.6430558 1.1032381
 1.0159110 0.1316334 2.0331066
 2.6938403 -1.2693216 1.7120848
 1.4483840 0.2024264 2.0152929
 1.1794614 0.1735861 2.0911145
 1.1623473 0.1913701 2.1282873
 1.9188113 -1.5542586 1.7961493
 1.8848648 -1.2427043 1.9513062
 2.1679277 0.6271058 1.0462192
 0.8980123 -0.9613548 2.1902351
 1.0604678 0.1357411 2.2265506
 0.9173551 -0.8268023 2.2649391
 1.3907921 0.0258265 2.2856584
 0.8242519 -0.8414531 2.3826988
 1.8898928 -0.9156659 2.0826097
 0.8190742 -0.8370659 2.3969445
 1.8479328 -0.3629920 2.1952140
 1.7668575 -0.3604070 2.2191498
 1.7626364 -0.3582910 2.2276416
 1.5335094 -0.3774710 2.2754951
 1.8697374 -0.7736934 2.1455333
 1.4427040 0.4324717 1.5019283
 1.5210236 -0.2451750 2.2954671
 1.4480660 -0.4057807 2.2978332
 2.4678340 0.6226014 1.0796325
 1.3645797 0.0456640 2.3514476
 1.7480137 -0.2260447 2.2485402
 1.8011448 0.4566706 1.4356468
 2.7084284 0.1607330 2.2363071
 2.7023611 0.1467388 2.2310627
 2.9747915 0.6881893 1.0134370
 2.8414128 0.6450528 1.0778167
 2.5106037 0.5823141 1.1924963
 0.9243299 -1.0212697 2.0744333
 2.2310328 1.1155849 -0.1582204
 0.9360411 -1.0238338 2.1430085
 0.5199379 -0.8901537 2.3779776
 2.9188986 0.6002280 1.1567148
 2.4251902 0.5213919 1.4183812
 2.3951595 0.5100599 1.3743277
 1.7642914 -1.6489083 1.7850964
 2.8382299 0.6092362 1.1542089
 0.9189965 -0.8220249 2.2400942
 0.9370961 0.4451575 -1.7686769
 1.3794425 0.5721499 -0.2962041
 0.6070087 0.5056088 -1.8322284
 0.7838717 1.4047205 -1.7344818
 0.6981024 0.4204517 -1.5890553
 1.2926379 0.4468800 -0.3425522
 1.2915391 0.3782755 -0.2120146
 1.1112221 0.1329716 -0.5058581
 1.2926979 0.4409638 -0.3569261
 1.2556311 0.9159796 -0.5624718
 1.2867707 0.4451860 -0.3364224
 0.6633549 1.4358763 -1.7648715
 1.3989236 0.6864001 -0.2645574
 1.4034003 0.6931643 -0.2583054
 1.0029948 1.0188195 -1.5720253
 1.2112448 0.9377646 -0.5123938
 1.4012796 0.6747856 -0.2964014
 0.9516979 0.7457992 -1.6802119
 1.2992435 0.7584054 -0.2480558
 0.5037713 0.5452610 -1.8136973
 1.2721872 0.3831237 -0.1463691
 1.1719059 0.4679672 -0.3908857
 1.3183147 0.7740592 -0.2209566
 0.8397418 0.2723880 -0.8653417
 0.4642721 0.5265483 -1.8335325
 1.1449554 0.6426674 -0.3435535
 1.0219257 1.0065416 -0.7880379
 0.5187652 0.5412893 -1.8299925
 1.0986713 0.4654747 -0.3149588
 1.0176182 0.9519779 -0.7082320
 1.1799966 0.8246483 -0.3194268
 0.8271983 0.0034527 -0.4194306
 0.7811223 0.0778457 -0.4873026
 0.7761577 0.0693434 -0.4813795
 1.1100346 0.8258674 -0.3036636
 0.4384503 0.5465985 -1.8450925
 0.2862324 1.4056145 -1.6290425
 0.9577225 0.7839279 -1.4992086
 0.0998122 0.9602365 -1.7570531
 0.8593386 0.5029540 -0.4671038
 0.1342771 0.9408494 -1.7702613
 0.1156545 0.9541568 -1.7617620
 0.1588717 1.2164488 -1.6898441
 0.1203443 1.5281628 -1.8467336
 0.2397804 1.1965903 -1.7013522
 0.1799863 1.1959426 -1.7009996
 0.6248465 -0.2008486 -0.0869113
 0.6372377 -0.1303919 -0.2068682
 0.5647284 -0.2010257 0.0131918
 0.4533874 0.5507751 -1.8317854
 0.5705714 -0.2238363 0.0415859
 4.4829621 1.2947814 -0.4058671
 2.6948924 0.6830083 0.9792551
 3.9558017 1.0628258 0.0413400
 2.9277949 0.7255718 0.7634707
 3.9954481 1.0779876 0.0858711
 5.4643359 0.1119410 -0.9013871
 2.9384720 0.7318894 0.8369275
 1.8346552 1.1735073 -0.1901110
 1.9806981 1.0485551 0.1770127
 2.6489501 0.6261976 1.1106342
 4.4281011 1.2061787 -0.2892875
 4.4256506 1.2085105 -0.2922081
 1.2726884 1.3159658 -0.5539657
 4.0014277 1.0763353 -0.0214989
 4.3113961 1.1349572 -0.1960878
 4.3215566 1.1438369 -0.1697134
 2.5984364 0.3768273 1.3863496
 1.3123301 0.2185697 1.9856979
 3.0487030 0.7151307 1.2597026
 3.0326855 0.6024184 1.1918446
 2.9926803 0.5848175 1.1758749
 1.8124809 -1.5387836 1.8302425
 2.6423922 0.4265777 1.4186990
 2.5995972 0.5722026 1.3682888
 0.9505855 -0.5237748 2.2559662
 2.5965312 -1.4985489 1.6618477
 2.7292302 -1.5941362 1.5776556
 1.4516265 -0.6764009 2.2382994
 2.7628098 0.6807812 1.5634812
 1.5715618 0.0521757 2.3134539
 2.6604748 -0.6742045 1.9377295
 2.6019309 -0.7080458 1.9247755
 2.7444766 0.1586611 2.2864749
 2.7458503 0.1656938 2.3000166
 2.5860572 1.3215052 -0.6383847
 4.0785265 1.2437212 -0.3835610
 2.6211460 0.6472284 1.0331247
 2.6470790 -1.0495188 0.5706720
 2.7010975 0.6771656 0.9602902
 2.1563408 0.6169700 1.0202268
 2.2334857 0.7175863 0.8228390
 2.1874225 0.6983457 0.9247192
 2.1839991 0.6333994 1.0376474
 2.3249085 0.7296322 0.7587880
 2.3998802 0.7161321 0.8377928
 2.5134914 0.7560667 0.6770273
 2.4037852 0.7147329 0.8370852
 2.4528167 0.8037815 0.5941455
 2.5825880 0.8089989 0.7424051
 2.9059095 0.9290244 0.3411545
 2.7728794 0.8212644 0.6263543
 3.0513194 0.9458588 0.3264829
 2.8509569 0.7018740 0.7987411
 2.8430798 0.6862423 0.7998970
 3.5198443 0.9596480 0.3499440
 3.4787955 0.9369478 0.3370678
 3.5308437 0.8201169 0.6637383
 3.5171745 0.8315735 0.6739348
 3.5008402 0.5691118 1.0309747
 4.3631463 1.1613506 -0.1641452
 2.5842507 1.5214288 -1.1963764
 2.5104861 0.7794306 0.7110768
 2.6056263 1.0074686 0.0868161
 2.6183004 1.2382424 -0.4986374
 2.6012082 0.7273340 0.3935506
 2.7598319 1.5058609 -1.1224589
 2.6239169 1.0152555 0.1059252
 2.7688801 1.5048573 -1.1090112
 2.6304069 0.9259918 0.2974873
 2.6325214 0.7216203 0.9268656
 2.8174922 1.1428361 -0.2234174
 3.1168017 1.6368037 -1.7158855
 2.8274717 0.6303362 1.0783882
 3.2229335 1.2478007 -0.5101355
 3.3553863 1.2109611 -0.3530250
 3.3586996 1.4522721 -0.8520212
 3.3364058 1.1000404 -0.1216491
