# .PCD v0.7 - Point Cloud Data file format
VERSION 0.7
FIELDS x y z
SIZE 4 4 4
TYPE F F F
COUNT 1 1 1
WIDTH 1511
HEIGHT 1
VIEWPOINT 0 0 0 1 0 0 0
POINTS 1511
DATA ascii
1.1990596 0.37802961 1.6255071
1.7620287 0.60630792 1.0581478
1.4813879 0.0403287 2.364573
0.2009102 -1.1495028 2.2739885
0.88508898 -0.27037501 2.2281313
-0.1541194 0.035383601 2.3791251
0.89654583 -0.0087324996 2.345408
1.9120482 0.64951652 0.97158247
1.5467286 -0.37862831 2.2357092
1.5183988 -0.055983499 2.2380733
-0.050212201 0.016261101 2.4140668
1.4481809 -0.31827769 2.2905116
0.91496819 -0.34919199 2.2870789
1.0589292 0.12753721 2.217782
1.6398776 -0.37108859 2.2447503
0.89319301 -0.26540169 2.2611897
1.2128489 0.44219899 1.4546217
1.4392681 -0.27368641 2.2978525
1.4172013 -0.1565287 2.2909589
1.2577115 0.40211409 1.5701035
1.4396162 -0.30145389 2.2988689
1.383913 -0.039331101 2.2645218
1.5450852 0.092493802 2.3323686
1.4172603 -0.2133823 2.2935152
0.36686811 -0.86271441 2.3659613
0.1841661 -0.93158269 2.4419062
1.4430926 -0.1968179 2.3110514
1.4012098 0.077430502 2.3353093
-0.2802985 -0.99574989 2.6093442
1.4092759 0.057655599 2.3346367
-0.13536499 0.0208822 2.2915719
0.30368501 -0.932221 2.4690373
0.30752081 -0.92890912 2.4652793
0.30293071 -0.92199028 2.4620192
0.068341598 -0.9348563 2.4588423
0.3213807 -0.96348238 2.571667
0.064124301 -0.96650702 2.5070527
-0.36053559 -1.0000169 2.6089115
0.0682806 -0.95906073 2.5210428
-0.85141808 -1.0998638 2.7245655
-1.1090671 -0.75841337 2.8518696
-0.84990782 -1.1041332 2.7414577
-1.1721395 -0.29569021 2.7941177
-1.0394502 -0.72997892 2.6868927
-0.73198342 -1.0626017 2.6963203
-1.0625728 -0.86292118 2.759969
-0.36255321 -1.0064019 2.6339419
-0.58438522 -1.252095 2.7931783
-0.278916 -0.99136722 2.5987818
-1.0748374 -0.15058111 2.7459333
-0.60223562 -1.0737385 2.7735474
-0.3576737 -0.99707252 2.5982361
-0.68331939 -1.1880627 3.1549418
-0.98734272 -1.0597068 2.7690752
-0.60403931 -1.0691335 2.7744305
-0.60344201 -1.0464826 2.7457333
-0.39171579 -1.0733675 2.8501968
-0.3531841 -1.0578591 2.5941901
-1.1881644 -0.1678409 3.0473766
-1.7144998 -0.73697883 3.0203352
-1.7890507 -0.93359327 3.1951528
-1.7535323 -0.74158102 3.0830336
1.5187427 0.42827651 1.4844706
1.3664893 0.3754248 1.5958467
1.440122 0.40341431 1.5387824
0.94358188 0.18085399 2.0538092
0.64192659 0.051625699 2.338357
1.0760378 0.1899451 2.0294032
1.4883132 0.39842421 1.5398489
1.4335096 0.37238961 1.5096186
1.663417 0.72660351 0.76232642
0.9377678 -0.74132198 2.2132556
1.3608685 0.37279209 1.6212925
2.6308098 -0.81840342 0.82718033
0.81327242 0.1034038 2.2974377
1.8948255 0.89548558 0.24906521
0.62479109 -0.87176502 2.3890092
1.5237119 0.380546 1.6451669
0.92031991 -0.55454558 2.2194602
1.846822 0.56819129 0.1705344
2.1740768 0.62158328 1.03344
1.6670902 0.65388089 0.1002603
1.5222169 0.2486195 1.9661609
1.1403863 0.19758029 2.045243
1.2463088 -0.75383449 2.2772381
0.95113713 0.12902901 2.1452892
1.7966323 0.45896819 1.4360049
1.7978224 0.46654961 1.4443781
0.88298291 -0.041189 2.2839415
1.0143064 -0.49088329 2.3869579
1.3097857 0.54802638 1.2283961
2.2664375 0.55679113 1.2544947
1.4985392 0.63161749 0.1018722
1.0200807 0.0214452 2.5331895
2.4791584 0.59154898 1.1547488
1.5518782 0.25837481 1.993049
1.3231889 0.3528702 1.6942226
1.3295679 0.32243881 1.726755
1.598027 0.52340811 1.2867754
0.95162988 0.24985281 1.9113913
1.3145933 0.27240869 1.5977935
0.99793291 0.2772254 1.9059253
0.55719852 0.1911137 2.0604694
0.61526883 0.21918599 1.9642766
1.2963158 0.30338591 1.8092705
1.3401518 0.2734375 1.7852226
1.0484885 0.24363419 1.9397922
1.3663064 0.30040139 1.8003625
1.7054753 0.6370939 1.0399894
1.3605897 0.278557 1.8244855
1.4449689 -0.40418801 2.2959957
1.4332938 -0.074162997 2.3311403
1.4776266 -0.3969467 2.3276265
1.4509059 -0.3868205 2.2805612
1.4169377 -0.086485803 2.3196764
1.7895575 0.092895202 2.2609172
-0.35770661 -0.999152 2.6037998
1.4117745 0.036192901 2.340157
-0.63282818 -1.0326675 2.6718946
-1.8228476 -0.95164222 2.92308
-1.6575462 -0.34381741 3.0492895
-1.7454404 -0.69346857 3.0302486
1.0503291 0.245611 1.9448323
0.68642467 0.16764151 2.1277111
1.1758528 0.25860101 1.8704937
0.68058062 0.1634278 2.1073189
1.217798 0.244863 1.9425772
1.1806171 0.22754879 1.9780282
0.9131757 -1.1356407 2.0493977
0.95374411 0.1864657 2.1021953
0.52639008 0.1218383 2.2445433
1.3626918 0.25094771 1.9226069
1.7560803 0.56404448 1.1660823
1.6567514 0.72032863 0.76390499
1.7629356 0.60399258 1.0580357
1.0560728 0.17722879 2.1726704
0.073046997 -0.94348532 2.5032499
0.8641808 -0.3621808 2.228143
0.35354561 -0.85578412 2.3843298
0.64516532 -0.82625902 2.2911899
0.81222612 -0.84431762 2.2855971
0.70014471 0.1083439 2.3032382
0.59460223 -0.86270922 2.3171644
1.5151477 0.83748978 0.50333518
1.8793895 -1.2794591 1.9320663
1.6864947 0.80650812 0.56023932
0.9115935 -0.82400131 2.2358966
1.8944163 0.63598359 0.97283077
1.7539666 0.56273168 1.1675019
1.8840011 -1.3090556 1.9166329
1.3108482 0.54029143 1.233252
1.6843888 0.80781412 0.54776448
1.8728175 -1.1180701 2.0053177
2.0228093 0.74196082 0.75499141
2.0311415 0.69950128 0.85932982
1.5071751 -0.1896358 2.2891221
2.0106905 0.69763702 0.84013307
2.0156941 0.67947578 0.89628941
1.45428 0.067852497 2.3072376
2.0864584 0.77249771 0.66612792
2.2314847 0.84381378 0.5027799
1.6725702 0.82478273 0.5258798
2.0872097 0.7689212 0.66242743
1.9496663 0.52650893 1.2845789
2.2415214 0.84830117 0.5002231
1.8644869 -0.82929897 2.1101966
1.684105 0.68914628 -0.13956609
1.8091704 -0.1969592 2.2338047
1.7948147 -0.1955083 2.2258301
2.4202588 0.81457287 0.54537082
1.9031231 0.28264189 1.926049
2.4018614 0.71379548 0.83628172
2.6174769 -0.71960288 0.9571417
2.4572182 0.7570281 0.73736203
2.5698617 0.8029536 0.72911477
2.3942668 0.70985889 0.83887428
2.5228732 0.77321333 0.72502261
1.6887568 0.6924423 -0.14258491
2.5161374 0.76777279 0.7242707
2.4227622 0.71659738 0.84281868
2.700459 0.93586171 0.26569599
2.2038062 0.71659958 0.9109906
1.878867 -1.121533 2.00301
1.8076888 -0.034343001 2.2405224
1.894563 -0.91930509 2.0775044
1.5387485 -0.32015699 2.3665681
1.8817658 -0.82775491 2.1226509
1.8032992 -0.094175398 2.2430768
1.4561396 -0.34629029 2.2949848
1.7454281 -0.55828547 2.2486641
2.6807394 -0.433718 2.0352874
1.8126414 -0.3330161 2.2074771
1.701273 -0.34892491 2.2364998
1.5736526 0.082714498 2.2856445
2.7004428 0.1514616 2.2279036
2.6894138 0.139751 2.2226596
2.6898189 0.1502199 2.2230539
2.7037342 0.1445756 2.2381279
0.91986412 0.77609748 -1.2356013
1.2353003 0.52397251 -0.3503311
0.97300643 0.89784968 -1.550163
0.85918528 0.61560059 -1.5994202
1.6546311 0.56844783 -0.35298049
0.821518 0.41119349 -1.0897216
1.6644455 0.56882793 -0.35777801
1.6609955 0.57123017 -0.34558189
1.6554689 0.56776512 -0.34840491
1.0605551 0.1918131 -0.45111531
1.1060917 0.25927019 -0.5162223
1.1258496 0.26298279 -0.53437769
0.92490041 0.71729422 -1.5567465
1.1069298 0.26340851 -0.51646918
0.96051508 0.19171099 -0.74158448
1.0935088 0.25813621 -0.50424027
1.6472138 0.70919192 -0.3207688
1.1027701 0.25603321 -0.69215661
1.4814088 0.45058751 1.4426014
1.854095 0.82113367 0.52893502
1.858638 0.84050298 0.4952786
1.8513198 0.83348662 0.49513289
1.8227479 0.61700428 0.1899069
1.9955877 0.86357617 0.404607
1.3262675 0.65131032 -0.062646598
1.9595755 0.84436578 0.4141292
1.3781028 0.25771141 1.9398736
1.9670093 0.77494729 0.66142541
1.9826815 0.7697379 0.67384648
1.917311 0.72172958 0.6883204
1.9608746 0.75834602 0.67384011
1.991078 0.76720208 0.66431183
1.9091755 0.64882618 0.97092837
1.7254021 0.28350931 1.9021015
1.3589368 -0.33624381 2.350244
1.7783473 -0.70050848 2.1962907
2.3862772 0.4900758 1.4128547
1.7245419 -0.35943371 2.2320428
2.3815823 0.48500541 1.4344211
2.5278106 0.5306046 1.3461881
2.409724 0.49657831 1.4359306
2.8390017 0.62983972 1.0842297
2.390873 0.48982579 1.431625
1.8039374 -0.3197872 2.2039778
2.7987559 0.5819822 1.140798
2.6640983 0.45121479 1.3253449
1.8253697 -0.27490351 2.2167397
2.5970693 -0.71622157 1.9269937
2.6227558 -0.50629699 2.0095732
2.6786861 -0.67189151 1.9507532
2.5951903 -0.51698208 2.0130453
2.6406419 -0.275839 2.0908978
2.0232756 0.69714558 0.84853512
2.0880337 0.77396882 0.66232592
2.1616499 0.96459991 0.163444
2.5830421 -0.72821409 0.95740151
2.2710021 0.97777992 0.14912669
2.2199862 0.95414841 0.15505961
2.2457259 0.97798473 0.1591796
2.2275128 0.83849722 0.50245339
2.2811627 0.83034378 0.52227682
2.3830869 0.96272099 0.2376377
2.6771681 -0.70649803 1.9253781
2.4272177 0.9237113 0.2680673
2.3870673 0.97206688 0.2386205
2.4291167 0.92479831 0.27109319
2.5742919 0.89881587 0.49873501
2.7015967 0.68658292 0.9592213
2.6564779 0.65977281 0.97015351
1.4818686 0.61445773 0.1060996
2.6515696 0.65774739 0.96469301
2.7370834 0.9279353 0.2966812
2.7426734 0.93433809 0.29365551
2.8259873 1.1402872 -0.22194719
1.6481106 0.62494332 0.1169439
2.9987733 0.59764779 1.1855111
2.8186703 1.1438832 -0.2191651
3.3125007 1.1764345 -0.3341316
3.0411749 0.61184198 1.1970501
3.4110041 1.2471747 -0.38670951
3.3204396 0.94356447 0.45009339
3.5470157 0.64001161 1.0467705
3.3348134 1.1914212 -0.34028631
3.419224 1.5088902 -1.0855895
3.6195889 1.4308093 -0.91473353
2.517539 0.76807803 0.73139209
2.5034804 0.58223158 1.1877759
2.0622993 0.15458471 2.2158256
3.0501101 0.9296906 0.33368319
2.4060574 0.31315011 1.8600544
1.8352445 0.80454522 0.2654905
2.4255981 0.32006219 1.8699195
3.2974858 1.0554485 0.0072082002
2.6890845 -0.59520352 1.9790986
2.8507748 0.63623828 1.0847161
1.8530682 0.58684278 0.146226
1.7196553 0.64678782 0.1743781
3.3053312 0.85664982 0.50876713
3.2650199 0.90780622 0.36302111
3.0250001 0.60143667 1.184824
2.9997323 0.58987749 1.1817664
3.0159459 0.59843171 1.1820122
1.5560712 0.64648098 0.1444255
3.3464522 0.86005843 0.54427081
3.3624694 0.86082667 0.54136139
1.667062 0.65057588 0.1033077
3.5068994 0.81440902 0.66374677
3.5299754 0.61772507 1.0209646
3.5119009 0.2870917 0.84940702
3.7480977 0.25336131 0.81565291
3.6860971 0.32944751 0.8476395
3.9261343 0.87354589 0.5685516
3.8929541 0.85075021 0.57900977
3.8752882 0.84991407 0.58688158
3.8616569 0.83636791 0.59053743
3.9125888 0.8282963 0.59573209
4.2181978 1.2033948 -0.30192301
4.0856934 1.2487493 -0.40828389
2.4492657 1.61703 -1.323073
3.1291981 1.4196105 -1.2134554
2.7871308 1.5321513 -1.1322192
3.9503109 1.3145494 -0.57975048
3.6928811 1.3862368 -0.79446381
3.277725 1.0098433 0.13455079
3.1728034 1.4646956 -1.242082
3.1758666 1.461808 -1.2484901
3.591563 1.4125935 -0.86788088
3.5936503 1.4202878 -0.8718695
3.1178453 1.4003648 -1.2163014
4.4233418 1.2417231 -0.36681259
2.1207018 1.7885438 -1.882477
3.7683938 1.3986664 -0.79972792
4.1734724 1.2731924 -0.4693346
3.2484159 1.5183601 -1.2876328
3.287941 1.4670838 -1.0593024
4.1283197 1.3142312 -0.6159631
3.799633 1.3894368 -0.78158379
3.4370921 1.5166843 -1.089764
2.6583521 0.4569366 1.3243803
3.070868 1.3451957 -1.8234081
3.081641 1.6063715 -1.6946498
2.8478546 0.69293308 0.88317889
3.3554928 0.71551108 -2.8257043
5.3348126 0.1111499 -1.4480528
3.3353887 0.49261531 -2.8155329
5.3343248 0.52782851 -1.1725136
3.53913 1.1311541 -2.2010758
3.3418517 0.62422401 -2.7844634
3.4904373 1.1096797 -0.1139945
3.3214946 0.58531708 -2.6732445
3.3178058 0.86914009 0.50664723
3.0330613 1.5841209 -1.7999088
3.0472839 1.5996979 -1.8194927
3.3283739 1.0351516 0.080309197
5.3057542 0.28958121 -1.5666689
3.5553248 1.1578414 -0.106457
3.41907 0.65401179 -2.8916001
2.8720357 0.70439339 0.91382372
5.305831 0.69990599 -1.2062739
3.3998892 0.70526057 -2.7648149
5.2240658 0.30312669 -1.8254695
5.3410926 1.0062001 -1.1008114
1.4668999 1.4916456 -1.3290695
1.5978943 1.3736246 -0.86636829
1.6082946 1.5470954 -1.3391991
1.6166794 1.5860885 -1.345222
2.7953787 1.1467309 -0.2316805
1.6567602 1.5141745 -1.2438061
1.6269619 1.5786498 -1.3477788
1.6195054 1.5582981 -1.3403311
1.4864299 1.6326988 -1.5281519
3.5709453 0.89096838 0.47864479
2.0271838 1.5289705 -1.1544919
3.2514277 1.0752977 -0.0087911002
1.4973786 1.6724615 -1.5578163
2.9336705 1.2272301 -0.40046561
2.5752976 1.2966632 -0.64286941
1.4837389 1.5905296 -1.4944062
2.5968199 1.2214605 -0.4153071
2.592541 1.2186061 -0.42486921
2.0573611 1.39762 -0.87051821
1.2911457 1.6530104 -1.5267683
3.5062106 1.1199554 -0.1092401
1.4563831 1.5704461 -1.4034702
2.6673031 0.44347161 1.3213491
2.586669 0.98363268 0.1044203
1.4678714 1.4078546 -0.94157672
2.1496332 1.2740989 -0.52202737
2.1012132 1.1982752 -0.48442531
2.1100647 1.2351977 -0.50821942
2.9145453 0.85069603 0.60879838
2.8689156 1.142535 -0.1934914
2.1260998 1.242166 -0.50826979
3.8611119 1.0264059 0.1453661
2.2247007 0.7237246 0.81767821
2.1547742 0.95534527 0.16127831
2.5131938 0.52852237 1.3297629
2.4097219 0.85516632 0.58258849
2.5118873 0.52564281 1.3389416
2.263165 0.97442782 0.15571269
2.0481548 1.3655694 -0.83966237
2.0445807 1.3627241 -0.84036928
2.5183008 0.52766639 1.3582466
2.2806938 0.98929977 0.143823
2.3859735 0.88964027 0.39229199
2.4994655 0.77232927 0.70383823
2.3985629 0.96009839 0.195362
2.3886182 0.96784508 0.2359242
2.5192778 0.77006799 0.67589539
2.6499195 0.67019922 1.0033118
2.6471975 1.3919096 -0.71057469
2.7071159 0.69075501 0.97577822
2.6071258 0.92520928 0.34683359
2.5417228 1.3264781 -0.68435103
2.6357689 1.0303137 0.091521099
2.8164644 1.0802013 0.30200899
2.6213298 1.01791 0.1000483
2.6001325 1.0404304 0.046060499
2.6132474 1.0084552 0.0983999
2.5292909 1.3268317 -0.69354051
2.6372635 1.0372918 -0.085756898
2.5843258 1.2179981 -0.4236697
2.9180119 0.73948753 0.79436427
3.5249319 -0.5526095 0.50748253
2.8353014 1.1669461 -0.2303357
3.1733963 0.68579477 1.2179172
2.6189115 1.3330895 -0.65495372
2.5754447 1.5108778 -1.1965292
2.5751903 1.5186737 -1.1940957
2.3653989 1.4871143 -1.2304088
2.589937 1.5466002 -1.2160197
2.8978031 1.1928097 -0.3824327
3.1183875 1.5839127 -1.6178796
2.9251764 1.2193352 -0.39661881
3.2711036 1.7199637 -1.7394236
2.6492879 1.751014 -1.7689244
2.941153 1.2300726 -0.40180039
2.820164 1.1469892 -0.22331209
2.9661672 1.1888653 -0.32092071
3.2777615 0.87889421 0.4995628
2.9584615 1.4988829 -1.049754
3.1103292 1.1477033 -2.0229962
2.5377753 1.2718337 -0.63534099
2.8729768 1.1632594 -0.36581221
3.50969 0.63134152 1.0443246
2.5738931 1.4999872 -1.1803405
3.1113057 1.4331743 -0.92676902
3.3811588 1.2205644 -0.3729727
3.4536569 0.78602707 0.66693711
3.4249654 1.1752661 -0.26285991
3.3772893 1.2083275 -0.37565479
3.4612858 1.1982948 -0.26782149
3.5423265 0.82963192 0.66159582
3.4610789 0.93070501 -2.3626127
3.0955749 1.6453053 -1.8639791
3.356638 1.4920956 -1.0721965
3.3629146 1.4956337 -1.0832345
3.3876009 1.2232753 -0.37848711
3.4380829 0.9112606 -2.1987324
3.3923013 0.87780929 -2.2929392
3.7427576 1.4122918 -0.81689942
2.0383027 1.3531524 -0.83283168
2.5949063 1.3104578 -0.63533717
3.2694974 0.9503575 0.32733911
1.9822198 1.4302843 -1.091869
3.5202241 0.94431931 0.34288201
2.5536814 1.1327267 -0.1215046
2.0095458 1.2971885 -0.80398262
3.0233586 0.92086577 0.3870188
2.8692331 1.1880337 -0.1011696
2.7594223 1.0767499 -0.0684288
2.5388055 1.2569221 -0.4714801
3.4697871 0.99391443 0.46336749
2.7235541 1.2744159 -0.4006896
2.2334237 1.7624657 -1.6713719
2.2925746 1.7020675 -1.4775963
3.213176 0.91749167 0.44861379
2.1387181 1.7956885 -1.8832995
2.1842954 1.8353426 -1.9186001
2.2082024 1.8591 -1.9470468
3.3301232 0.87704122 0.50996119
2.1610003 1.6612949 -1.5905497
3.2811425 0.96097922 0.31412631
2.3471217 1.9172257 -1.8126258
2.2477326 1.6729685 -1.5846481
3.2990129 0.90511632 0.42093229
2.2586389 1.682694 -1.5938656
2.2745941 1.5801481 -1.4852608
2.2023563 1.7174337 -1.634372
2.2903264 1.8389481 -1.7493558
2.2786634 1.5745912 -1.4740802
3.1239536 1.13706 -0.43746421
1.499084 1.3932277 -0.91008168
2.2459891 1.755998 -1.6626916
3.3076673 1.1552293 -0.25505769
3.33898 0.917656 0.51143032
3.2571259 1.1210663 -0.3334505
3.4839191 1.1063288 -0.1184306
3.3152072 1.1283416 -0.0283315
3.31775 0.99469501 0.17749199
3.2255352 1.2516265 -0.50182068
2.0978079 1.8137327 -1.9075066
3.1557934 1.2097 -0.46827859
3.2012887 1.2558781 -0.50520247
2.2658613 1.7551559 -1.8124192
3.9484947 0.76531309 0.8282693
3.2043736 1.2456471 -0.4665232
2.9453063 1.4839849 -1.0357924
3.0144382 1.5235089 -1.5769142
3.4893155 0.91709262 0.35539731
2.9604306 0.91264278 -2.3403728
2.8349524 0.81017047 -2.1508791
3.9945071 0.78045851 0.82193112
3.330327 1.4751709 -1.0677185
2.9949062 0.95149243 -2.4071662
3.2591033 1.3767312 -0.83272249
3.2837455 1.4033092 -0.85248291
3.4748209 1.1912597 -0.29329339
2.8766205 1.8866235 -2.2658858
1.2149341 1.7719178 -1.9498476
1.216048 1.7825958 -1.9662275
3.340415 1.1415833 -0.1556555
3.6418512 0.8389681 0.60378993
1.6748039 1.623415 -1.5523627
1.6736718 1.6049219 -1.5325688
1.2173334 1.80835 -1.9817173
3.3613904 1.11483 -0.116635
3.3357482 1.1339008 -0.1530188
3.6689675 0.71534389 0.93970972
3.460933 1.1245729 -0.1624326
1.3845781 1.7993401 -1.9053347
1.2159064 1.8952935 -2.0652075
3.4797914 1.1424314 -0.1523018
3.6423616 0.83947009 0.6028713
2.4891691 1.2821958 -0.67037982
3.5282021 1.1575396 -0.2350152
3.4865685 1.1189923 -0.2214013
3.5192285 0.83709311 0.59665769
2.0395463 1.3551168 -0.85355312
3.1460721 1.2811267 -0.52783698
1.8438134 1.7241389 -1.7497109
2.4406729 1.6963434 -1.6995161
2.506536 1.8120267 -1.7847105
2.2791007 1.7136565 -1.6171198
1.7317051 1.8465683 -2.092171
1.7773353 1.9072051 -2.159364
2.1293793 1.7260857 -1.8218752
3.5306599 0.94572258 0.34770411
2.5230138 1.8330033 -1.8004538
2.2428617 1.6417681 -1.5599033
4.5428405 1.0156076 0.2136171
3.3572705 1.4635166 -1.067451
1.7601008 1.8384051 -2.0939484
2.0727181 1.7505288 -1.8500434
4.0487962 1.224961 -0.40196311
4.324101 1.1536921 -0.1794707
3.6804793 1.3769892 -0.79228377
4.4015636 1.1279311 -0.1008012
4.3205738 1.1555469 -0.186529
3.2551565 0.90515518 0.2721881
1.5882273 2.2071047 -3.6223202
4.0622702 1.229306 -0.39270529
2.9795806 1.1933371 -0.3169412
3.6170743 0.89769852 0.51011282
1.7667167 1.889708 -2.144037
3.9532032 1.3146601 -0.57728881
2.9058762 1.2019793 -0.36493331
1.7782915 1.935702 -3.666795
4.1816173 1.3430135 -0.62546098
4.1634016 1.3430694 -0.62884629
3.7666299 1.3911582 -0.79935497
1.2701865 1.8598026 -3.4824231
4.1091614 1.3037013 -0.6056096
2.645961 1.7477348 -1.7578372
4.4919248 1.106045 -0.0594722
5.5765858 -0.28206921 -0.54478967
2.8195753 1.7427868 -1.7755456
4.3992381 1.2276938 -0.37364361
4.1525893 1.3356749 -0.62530088
3.1004107 0.94215429 -2.3293738
3.4081445 1.5046219 -1.0867479
4.159966 1.3307301 -0.62266421
4.2476592 1.2176238 -0.37882751
3.6650586 0.71062791 0.9370361
2.8515141 1.7798523 -1.8179935
3.3490157 1.0855985 -0.0291801
2.9515755 1.1689478 -0.31675759
3.4833052 0.94165468 -2.3909047
3.6923075 0.72360599 0.94858348
4.4187155 1.4594142 -0.67625058
3.5139256 1.1106795 -0.1889025
1.5529103 2.0753765 -3.4222236
5.6407413 0.037771899 -0.37947339
1.5486434 1.9539019 -3.500632
1.5474472 2.121671 -3.4875968
3.4812756 0.91391039 0.35799429
5.4568334 -0.1545241 -1.0289454
3.4110973 0.52056688 -2.8947647
3.085144 1.0104525 -2.5787342
3.4216337 0.52731782 -2.8849339
1.5645477 2.0831549 -3.4239702
4.4073009 1.2311826 -0.37078461
3.3782346 1.5161572 -1.0885993
3.7216976 1.362151 -0.78168511
3.1363049 0.60268569 -2.758158
3.1261082 0.9142682 -2.2615547
3.2816017 1.3992751 -0.84241903
3.380018 0.34189311 -3.1390264
2.890645 2.2002389 -2.6820502
3.0819101 0.56696123 -2.6819761
3.2938952 1.4150958 -0.86048257
2.6779504 1.7879391 -1.7921342
4.2066617 0.93488139 0.41430631
4.2073474 0.93352962 0.40376461
3.0987499 1.3893397 -1.2026227
4.3888621 0.93809581 0.46773031
3.1073816 0.91994518 -2.3042657
4.3771982 0.94044662 0.3801848
3.6572523 0.84472972 0.61286032
4.3584862 0.98760772 0.2781781
4.3045068 0.96147561 0.26588899
2.8536472 0.62207562 1.1386176
4.0138106 0.80499291 0.75579017
3.0778568 1.601302 -1.6857966
2.166234 0.63676542 1.0304101
3.6584742 1.4483492 -0.90708047
3.7962706 0.90920627 0.42385069
3.6842322 1.388217 -0.80041742
2.5279319 1.3355308 -0.70415819
3.2017841 1.1950046 -0.3394247
3.4016294 1.1664662 -0.27080101
3.6774223 0.72135741 0.93828028
3.4968061 1.1953753 -0.2841135
3.4732416 1.1879615 -0.29085681
3.363883 1.1924765 -0.3522273
3.3123641 1.2141203 -0.38833261
3.2064073 1.2477484 -0.46256769
3.3647449 1.1974268 -0.3509315
3.2110505 1.2651742 -0.5092032
3.2111397 1.2429641 -0.46117249
3.5675421 1.1622701 -0.19802269
3.4810536 1.1976606 -0.29527739
3.5454733 1.2493746 -0.47510901
3.5511143 1.2598151 -0.48516789
2.8682303 0.7056753 0.91834211
3.5282667 1.2387795 -0.47286701
3.3063319 1.0468363 0.045615599
3.5313478 1.238377 -0.47737619
2.0220921 1.5782956 -1.4446206
2.4272721 1.5898802 -1.309033
2.6695523 0.43001339 1.3091792
3.5411954 1.2774115 -0.53921908
3.0925899 1.4249189 -0.93849277
3.737361 0.91698968 0.41083941
4.0540905 1.2219827 -0.39595151
4.1442451 1.2042941 -0.24892899
2.5205832 0.52696168 1.3495234
3.0699883 1.3940796 -0.91860259
3.1183879 1.4420087 -0.92093199
3.4986265 0.95357919 -2.4057927
2.9013376 1.6781269 -1.9208044
1.3520459 2.0552659 -3.3685658
5.3586993 -0.1193086 -1.4825126
3.3752482 0.53417009 -2.9008439
1.4803827 2.2898383 -3.2593255
5.4252677 0.52941418 -0.7531848
5.438797 0.1120055 -0.91237217
3.3913763 0.53543442 -2.9195759
3.4029155 0.71321702 -2.7934349
2.9065332 2.1825294 -2.6730742
3.3965917 1.638895 -1.7657299
5.441576 0.1152456 -0.91021818
1.3048987 2.2287726 -3.3410516
5.2676306 0.318068 -1.8449241
3.1757152 1.9471289 -2.374876
5.2831602 0.99494088 -1.0846918
3.9260023 1.0516328 0.1614036
5.2502956 0.90966868 -1.3066096
5.3131576 0.70900208 -1.4041276
1.5593737 2.0706141 -3.4237854
5.1867146 0.3499209 -2.0519438
5.2039256 0.6452868 -1.7520885
2.8439853 2.2479372 -2.868365
2.7735827 2.0392132 -2.5171258
2.1424856 1.4845762 -3.7737823
5.3354092 0.94285131 -1.3336673
2.9273901 0.60411602 1.1462256
5.1812081 0.64435548 -1.7429526
5.3995624 1.1884692 -0.85785502
5.1909862 0.64797038 -1.740997
5.1572638 0.88514853 -1.6437073
3.1747572 1.9280332 -2.3671906
1.7531717 2.129519 -3.4677384
2.6457763 0.61793578 1.1436554
5.1683683 0.88395649 -1.6469631
5.4324937 1.2891151 -1.0047983
1.8659555 1.858572 -3.5315886
4.7775793 0.57761598 -2.0708804
5.0692134 0.6468066 -2.2528026
3.5513461 1.1669227 -0.23107029
1.7543819 2.1399853 -3.4827693
1.7467418 2.3657408 -3.3948991
1.8588948 1.8801458 -3.5431771
1.7631624 1.8488315 -3.4997795
5.1754332 0.87935162 -1.6478904
1.8689115 1.9103558 -3.610677
5.4383135 1.2872152 -1.0068152
5.1732006 1.1705999 -1.5389795
5.1677227 0.71011609 -2.0952959
5.1950617 1.2209011 -1.3308259
1.8630726 1.8940251 -3.5668278
5.0620418 -0.85508567 0.2162526
5.4899778 0.71488267 -0.2181036
5.5333509 0.61769068 -0.1334399
5.0698543 -1.0289098 0.13213819
4.5898862 -0.55432761 0.48787141
3.6900895 0.16307829 0.95270872
5.0531917 -1.0122581 0.1241628
3.7139573 -0.4451296 0.91676462
4.0897651 -0.47434691 1.0765425
3.9077911 -0.44717029 0.96593708
3.9873924 -0.4355942 1.0280485
3.7307234 -0.44288889 0.91638052
5.5039678 0.074646004 -0.3581681
4.0411601 -0.47209129 1.0821902
3.7931263 -0.45386401 0.99617457
5.5711036 -0.68962002 -0.1910367
3.754719 -0.43913409 0.90991497
3.7313399 -0.43704361 0.91509539
3.7523799 -0.44630989 0.92945123
4.0786867 -0.48818839 1.1348839
4.1944141 -0.4748801 1.1080101
4.0854206 -0.47667319 1.0860617
3.7009437 -0.4642323 0.95497668
2.9498649 1.7490135 -2.0083036
4.5278974 0.97768569 0.27391779
3.3277192 0.60839897 -2.7901368
3.8986654 1.3435224 -0.67416948
3.6357048 0.83785278 0.59588557
3.7617087 1.3942373 -0.79574198
3.8994048 1.3932804 -0.74110121
4.5761409 0.98764747 0.2843664
4.0038919 1.2066604 -0.41339231
3.4498782 0.73659593 -2.8503788
4.1524949 1.1405585 -0.17181189
3.9782474 1.3297776 -0.5750286
3.8455968 0.79615009 0.74820638
3.5166385 0.912925 -2.3092878
4.3489995 1.1492492 -0.1667636
4.6191916 1.0508249 0.2275209
4.1560812 1.3266509 -0.6115877
4.4337411 1.1434858 -0.087657303
3.4808276 1.0926591 -2.1396832
4.4051867 1.1107106 -0.099643797
4.4038544 1.1284981 -0.097672902
4.4549179 1.1540238 -0.093933798
3.5128174 1.7273704 -1.8466717
4.1603985 1.2757045 -0.60578758
3.84039 0.78939468 0.74185443
3.1483507 1.9006095 -2.3378489
4.838253 1.0561082 0.069961198
5.6323938 0.25397861 0.072909698
4.0522366 1.594468 -1.5024872
5.6138058 0.2460843 0.074171796
5.017467 1.132296 -0.020877101
5.6147318 -0.090176202 -0.21339519
5.6117501 0.040497798 -0.069430597
5.7259111 -0.43127549 -0.47758529
3.781193 0.91467959 0.42721081
5.5127311 0.92563778 0.3888388
5.4444108 0.12610421 -0.91076678
5.6005564 -0.28723881 -0.82902622
5.4970078 0.54061669 -0.0062373001
5.4414873 -0.074856102 -0.99078262
5.6172018 0.2417946 0.077584699
5.4429054 0.1151075 -0.90994471
5.5061164 0.32940269 -0.49165899
5.5571599 0.2662684 -0.33423501
5.5623503 0.1619813 -0.37169129
5.3361583 -0.092045702 -1.668504
3.7747493 1.5293199 -1.750688
3.7256634 0.91412789 0.42669141
5.4224334 0.53768009 -0.75581223
5.3288932 0.47637311 -1.3036447
5.4166541 0.271882 -0.9193055
2.5764639 0.864434 0.50817788
5.4126601 0.67778629 -0.69433171
5.3042908 0.1158093 -1.7975703
5.4323602 1.0852882 -0.54181302
3.7664938 0.90596819 0.41897041
2.114053 0.6440981 1.1228392
2.3198657 0.74254721 0.75988942
3.8438761 1.1369469 -0.089054301
2.5072403 0.78947967 0.68707621
3.5167654 0.81442928 0.65652978
3.5770047 0.65161002 1.0654404
3.3399627 0.84128892 0.52752501
3.5114858 0.94156343 0.33803621
3.0267022 0.6011166 1.1799639
3.0322852 0.60673279 1.1872005
3.0290165 0.60193992 1.1846137
3.8014526 0.99946612 0.1130596
3.3327503 0.86978477 0.51312739
3.9491172 0.84561008 0.58391178
3.9582357 0.85281932 0.58609658
3.9670017 0.86209643 0.5911566
3.9900458 0.84323841 0.56419098
3.9442453 0.84312248 0.58609968
2.9828818 0.67226338 1.0351886
4.0510745 0.84150529 0.63420248
2.827744 0.60742319 1.1468356
4.0667434 0.89546692 0.50614363
3.9570799 0.92664123 0.36735871
3.9760599 0.99327731 0.1678368
4.1238871 0.91728997 0.50809819
4.0251355 0.88578922 0.48119631
4.0470152 0.84019291 0.64115161
1.9648381 0.77225173 0.65402168
4.0353036 1.0140176 0.1915812
4.0241356 1.0094463 0.1930331
2.958926 0.66673499 1.0154506
4.02667 1.0076802 0.19620921
2.846915 0.61492091 1.1454089
4.0484886 1.019655 0.22529189
3.4836655 0.93915612 0.3299419
4.4112616 0.5795145 1.2605654
4.1806898 0.8909269 0.49101761
4.1875668 0.89751738 0.49349999
4.1206613 0.9772104 0.2461296
3.5708573 1.1463773 -0.1811309
3.9664443 1.1234301 -0.29600459
4.0941911 1.0055648 0.2077263
4.1775618 1.1478189 -0.1615013
4.1909661 1.1651312 -0.1329269
4.0764723 1.1966872 -0.2956318
5.1085572 0.1912021 -2.4668412
5.2018967 0.28568721 -1.8890545
5.450069 0.7516914 -1.2374066
5.3195386 0.98014349 -1.0469075
5.0921292 0.38025951 -2.3795166
5.4240866 1.0511007 -0.55503309
5.4257464 1.1561272 -0.51400399
5.1325488 0.1934104 -2.4804549
5.4228506 1.0557003 -0.55162191
5.0675764 0.42761981 -2.6364777
5.4329796 1.0816391 -0.54027712
5.1143074 0.38425049 -2.3929486
5.623889 1.0389098 0.17830139
4.1277552 0.91848809 0.48577651
4.1342406 1.1192597 -0.1549547
2.0276053 0.80653399 0.56192619
4.4267778 0.96653271 0.59690952
4.185061 1.1531919 -0.1588926
2.9321499 0.63041568 1.1008757
4.4213095 0.94268131 0.3666926
4.2415152 1.0685062 0.073391601
4.7591796 0.44855401 1.5181892
4.7972116 0.2232734 1.4255953
4.4535465 0.94946831 0.45932189
5.3342581 -1.0948105 0.7597369
4.4989424 1.1281437 -0.089085102
2.9202943 0.63054663 1.1264269
5.3325152 -0.59897739 0.97747648
2.8370097 0.61846751 1.145089
5.0286894 0.53269643 1.6787871
2.1045451 0.87173712 0.4173722
3.2778721 1.0082783 0.1365359
5.3430676 -0.58839732 0.97807568
4.400538 1.2344513 -0.35750449
2.9262755 0.63092762 1.1125669
5.3417358 -0.57510221 0.97258252
4.64147 1.2489922 -0.26831251
4.7341404 1.024668 0.1557247
4.7075424 1.0149776 0.2378497
3.2978399 1.0605611 0.0136548
4.9849434 0.60817349 -2.800895
4.7066665 1.0345443 0.2102243
4.5720844 1.0246018 0.2148882
5.1308317 0.0499238 -2.4683766
5.7192712 -1.079113 0.64312541
5.3531766 -0.4049508 -1.6584443
5.865293 -1.0046444 0.4439818
4.9720407 0.3589845 -2.9053447
2.840014 0.60864931 1.1508174
5.2428594 0.094674602 -2.0300047
2.4049273 0.72045541 0.84665418
5.0266504 0.083405599 -2.4461143
5.3658204 -0.1216604 -1.4773195
5.0837755 0.086014502 -2.4810734
2.2399151 0.84314167 0.49674389
2.7400639 0.82535428 0.5871219
5.470583 -0.36001891 -1.0952972
5.2645054 -0.22441921 -2.1037705
3.2919061 1.0581532 0.0061106998
2.1525986 0.9183346 0.3115294
5.8639188 -1.1589429 0.39505151
5.8731732 -0.98822123 0.5923745
5.2988701 0.1099088 -1.7968819
5.4475894 -0.44606581 -1.1934392
3.9304433 1.1000812 -0.1266108
2.1884639 0.63839138 0.95590723
3.5109015 1.1089334 -0.085864097
2.3279483 0.69758731 0.89416403
3.5571795 0.63851982 1.0369349
2.4980817 0.7736932 0.71198148
4.0095744 1.0038338 0.1953079
3.7959867 0.95624632 0.32749879
3.9623706 0.9874472 0.15430319
3.3053851 1.0406199 0.044288199
3.6801763 0.8596859 0.55801493
3.7721128 0.91222262 0.47202659
3.9515443 0.98679447 0.18179031
2.1038253 0.6284911 1.0429573
4.2631488 1.0669285 0.079331599
4.3032417 1.0238818 0.1490715
4.0074205 0.80322868 0.75783962
4.0192022 0.85702789 0.58604509
4.084743 0.89705908 0.4627389
2.1009519 0.62789881 1.0541241
2.5201995 0.76799601 0.73092443
4.091825 0.85157281 0.68224382
4.0560951 0.84536397 0.63801461
4.3343949 0.98360932 0.26812741
4.1928535 0.89939332 0.49896449
1.9269658 0.78964359 0.73803473
2.0181208 0.87492722 0.39969841
4.4071674 0.92107773 0.37380919
1.7457943 0.89013487 0.68601781
4.0918288 0.89720702 0.46981341
5.4186583 0.6716814 -0.69585878
5.6115479 -0.70186049 -0.59503889
5.4373951 -0.14998131 -1.0247262
5.4072132 -0.102859 -1.4965024
5.3280854 0.80089152 0.72424811
5.9186225 -0.93231177 0.66850048
5.1338801 0.69655591 -2.0754652
5.6004848 0.0176313 -0.35712889
5.5631685 -0.2665292 -0.5496062
5.5804391 -0.0151987 -0.383068
5.1957598 0.2851969 -1.8792858
5.7224922 -0.071726397 0.33253819
5.1762047 1.2544492 -2.1092696
4.9628835 1.0470272 -2.6407883
5.5747318 0.4056403 -0.1542875
5.4111915 0.27090269 -0.91897851
5.4177322 0.31086749 -0.87444371
5.0808802 1.3475622 -1.9278219
4.8785238 0.90947437 -2.6773121
5.6807938 0.4598003 0.43140629
5.510087 0.48590061 -0.4428986
5.200357 1.1282218 -1.5656923
5.4217219 0.63149393 -0.85133541
5.0222354 1.0990715 -2.4607828
5.049571 1.5293696 -2.2921915
5.9717293 -0.44377959 0.84182668
5.6039858 0.40391481 0.0774009
5.3502436 1.325937 -1.0494859
5.1379118 1.3707142 -1.9567294
5.3760834 0.73752898 -0.86021811
5.4260335 0.6765725 -0.69083238
5.0093031 1.6830839 -1.5862857
5.1025925 1.1094158 -0.93851912
5.3958812 0.86046618 -0.6950506
5.5607004 0.62619102 -0.1951309
5.6846952 0.46845981 0.43161789
5.0913372 1.0679493 -2.1159933
5.6852627 0.25529599 0.085316502
5.6700153 0.074944198 0.1680209
5.6161814 0.4601568 -0.1892418
5.6316643 0.58463877 0.25722611
1.6886377 0.59838837 1.0770181
2.5255125 0.78001952 0.67625481
1.6947836 0.59414989 1.0570458
2.5252876 0.78198302 0.680619
1.6930666 0.59128582 1.0924308
1.72849 0.58482778 1.1141899
2.1407313 0.68840528 0.94337308
0.96124512 1.159745 -1.0381075
2.4073272 0.72137141 0.85356128
2.8799803 0.83341342 0.63478428
1.8198471 0.90823752 0.63170677
0.8012554 0.42886209 -1.0342417
2.0605743 0.64773369 1.0597205
2.8398221 0.78006029 0.78025991
0.7694062 0.35834539 -1.357882
1.7580785 0.56516773 1.1798627
1.9893019 0.59720999 1.0942388
2.1656225 0.6375705 1.0436126
2.6620183 0.71181828 0.83059192
0.85181367 0.52232152 -1.0896947
3.8356223 0.96505058 0.35522401
2.1152811 0.51221412 1.2699113
1.798336 0.47088119 1.420889
2.9346912 0.74492651 0.81345987
1.6237469 0.49020419 1.3621
1.6227622 0.4851051 1.3618009
0.88973498 0.750049 -1.5024009
1.7464929 0.524975 1.334415
3.5321519 0.8638674 0.54317617
1.7439169 0.51366723 1.3129084
3.4151177 0.81873882 0.6460824
1.6241863 0.4878422 1.3661163
1.3925973 0.4242346 1.5447503
1.5221869 0.42567009 1.4917014
4.3614359 0.98290801 0.28825021
3.5123904 0.80945152 0.6381073
1.7996005 0.45759541 1.4163573
1.794026 0.457421 1.4408152
1.7969521 0.45612249 1.4076123
2.1613002 0.6293211 0.98768729
2.1669405 0.62885833 1.0190958
2.2681003 0.67394012 0.94896978
2.3995934 0.71066612 0.81548148
2.7505453 0.83034229 0.60427868
2.7452624 0.8290115 0.59498292
2.4487 0.71755821 0.8359139
1.9824917 0.53901678 1.2491977
2.7447159 0.83014268 0.5931592
2.1663609 0.63027048 1.0238239
2.4043741 0.71887922 0.84181827
2.8498659 0.82373363 0.58187783
2.8706479 0.83380252 0.61721998
1.9529972 0.5310508 1.3098048
3.2887354 0.97822303 0.209436
2.1901321 0.65121382 1.1789799
3.1335142 0.90632111 0.42284471
2.837342 0.78341979 0.75457591
3.3269248 0.96014422 0.31453371
2.6307313 0.721223 0.86196017
2.2167788 0.84272021 0.50408667
2.2109244 0.57582527 1.1911724
2.2151248 0.84410119 0.51234633
5.6746373 -0.1630093 -0.77071351
4.7942486 1.0454243 0.1734139
5.4768281 0.1760933 -0.68451118
4.9457898 1.0512106 0.25846469
4.6855788 0.88926578 0.54589897
4.8052988 -0.89648312 0.95911437
4.8343668 -0.92548358 0.96716362
4.7626929 -0.6954062 1.0857053
5.0037236 -1.2349232 0.99297249
4.9402814 -0.75328779 1.2475749
4.8307805 -0.92121428 0.96268481
4.6780634 0.88815123 0.54497612
4.8731947 -0.4165028 1.2870784
4.828166 -0.4104633 1.2455521
5.5360875 0.90740871 -0.1551829
4.7490001 -0.1971426 1.506801
4.745235 -0.1968977 1.507773
4.7833743 -0.2042872 1.5485991
5.5360508 0.90320528 -0.15566771
4.8058815 -0.60703337 1.1183126
5.6011367 0.455917 0.3985745
4.7459416 0.44941479 1.5114356
4.8454852 0.1481964 1.5279045
5.712883 -0.071084902 0.32261789
5.7445421 0.0368894 0.4852497
2.6730032 0.71951401 0.86968118
2.6787696 0.70676512 0.90893918
2.6300302 0.67600727 0.98237783
2.6214151 0.67884552 0.98408347
2.2606483 0.55646127 1.2825418
2.6209738 0.67536807 0.97406018
2.1883156 0.87904638 0.41952139
0.96224159 1.1557574 -1.0382067
2.39449 0.55979371 1.2088245
2.4031925 0.56318909 1.2423155
2.8201613 0.70543921 0.95600998
2.303201 0.87412071 0.40325069
2.5388098 0.58939087 1.1659737
2.8901041 0.71812361 0.93100989
1.651094 0.57694751 -0.32141891
2.3907459 0.49441981 1.3907531
3.2761683 0.87198859 0.50411463
1.9680488 0.90596122 0.48407051
2.5131173 0.52446902 1.3359582
2.4026556 0.50618207 1.3910682
2.376045 0.4928529 1.3963743
3.5698276 0.88156128 0.58973229
1.6999968 0.5696466 -0.31937349
2.7668011 0.56846011 1.2179273
2.3692169 0.49497971 1.3990822
2.5151589 0.5225606 1.330104
2.8385632 0.58244628 1.1849782
2.5184844 0.52416873 1.343148
0.88295603 0.82800072 -0.98158711
2.6431727 0.50116408 1.4417859
3.7183251 -0.1179701 0.84374928
2.2388535 0.8127926 0.5601204
3.3277924 1.0303483 0.086594701
2.0707095 0.78525639 0.73209208
2.0935042 0.77481318 0.66175812
2.1473694 0.76438493 0.6985867
1.9932905 0.71591288 0.79154879
1.989243 0.71608251 0.78585011
3.3677728 1.0074763 0.2349499
1.911473 0.72888029 0.8159771
2.770318 0.89928871 0.4103536
2.1483135 0.76606411 0.70052809
3.2783027 0.97489399 0.2067728
2.3780696 0.82942742 0.58042759
2.1512351 0.76285732 0.7006039
2.1672335 0.74559128 0.73772049
1.8494133 0.67816752 0.89580327
2.0428212 0.72073489 0.75325221
2.1636801 0.74565393 0.74983591
2.1797523 0.75262171 0.75375623
2.1714325 0.74595642 0.76141328
1.6956196 0.57585782 -0.3152515
1.8501543 0.6805492 0.88319898
0.84227759 0.52345991 -1.0862843
2.1525972 0.76759768 0.71596932
1.6525017 0.70855981 -0.3244724
1.9119371 0.6667217 0.8516773
2.025501 0.69402063 0.84848702
2.0222776 0.69868922 0.84278911
3.1318288 0.90635687 0.47138351
2.5072322 0.78807288 0.68345118
2.4983401 0.77086699 0.69701242
3.7129998 -0.1212075 0.83477259
4.3256874 0.97577113 0.263134
3.5984023 0.2581954 0.87395668
3.6153426 0.2389245 0.87921399
1.8289984 0.1222716 2.2882297
4.2608409 0.88872981 0.52064818
3.5881326 0.66811901 1.0610762
4.0461311 0.83451259 0.64691031
2.6218343 -0.50157338 1.9586208
2.2507918 0.068792403 2.1666229
2.6790123 -0.59382188 1.9736258
4.5661821 0.95032269 0.29548809
2.7049084 0.1331431 2.2799368
5.5588431 0.93119359 0.40939599
4.8538656 -0.64044458 1.1387637
5.3929667 -0.79882509 0.92426002
4.7116289 -0.21701691 1.5356542
5.9005704 -0.95902812 0.64698929
4.6458969 0.326543 1.7253052
5.9492974 -0.3699894 0.78765023
4.228972 0.94618422 0.40197331
1.7529881 0.88990062 0.65624988
3.8772461 0.84444499 0.56378222
1.3683549 0.30193701 1.8163465
1.3720309 0.30100289 1.8106031
4.3237562 0.89747387 0.48532459
1.3726078 0.29698899 1.8726418
3.845397 0.79371488 0.74373198
3.5740087 0.66235387 1.0518337
3.9310975 0.77027869 0.82106167
1.461612 0.21277259 1.9999379
4.0008116 0.74156159 0.79365939
1.5230253 -0.38500711 2.2825632
1.7899917 -0.66871047 2.1054494
0.92440009 0.58137178 -1.6326544
1.7100395 -0.3447533 2.2030771
0.77054697 0.56482488 -1.3684835
1.4188586 0.0508864 2.3428898
1.42129 0.0542932 2.3361254
1.7876352 0.090539001 2.2542346
0.77892792 0.39294139 -0.91995049
0.83362621 0.50313342 -0.89278239
0.93449169 1.0702142 -0.90102577
0.90248942 0.78788722 -0.88064051
1.4053037 0.58176368 -0.39729971
1.1197809 0.25918251 -0.51836848
1.4336395 0.75221348 -0.3376027
1.4863423 0.52086622 -0.27955651
0.88311851 0.7111935 -1.2970612
0.90331119 0.97451961 -0.82580429
0.93914938 1.0857047 -0.82308328
1.4441444 0.75060099 -0.32799399
1.4628744 0.4473556 -0.2292538
1.3500366 0.73614782 -0.34686059
1.4716216 0.52355552 -0.2536419
1.4783369 0.52212948 -0.241908
1.456593 0.44948751 -0.2224955
1.3526161 0.54931599 -0.26809499
2.0427718 0.72775429 0.78824419
1.396628 0.57598209 -0.37748581
1.3774416 0.58593023 -0.363267
0.80037802 0.54560351 -1.3736994
1.6441468 0.56568229 -0.3505004
2.019484 0.69872838 0.85894167
1.4633358 0.52741623 -0.20970491
2.6877356 -0.59492099 1.9752072
2.273087 0.075783901 2.2504692
4.8276501 -0.63553989 1.1253669
2.6865308 0.15142541 2.2128201
2.6911168 0.1508065 2.2296722
4.8386588 0.44300669 1.5453949
0.81321192 0.58506691 -1.4847457
0.94667357 1.1243274 -0.92767388
0.78336328 0.55267757 -1.3655471
0.79803169 0.62282747 -1.298545
0.7562204 0.3995949 -0.91329318
0.89527571 0.57499731 1.2484512
2.0191727 0.55221713 1.0805119
0.77569473 0.43378109 -1.0289764
2.1050706 0.54263902 1.255337
2.1055417 0.5391714 1.2635196
0.8313688 0.4207221 -1.0348654
1.7609298 0.51602769 1.2630235
0.80159009 0.48658901 -0.92978579
0.90176398 0.60853541 -1.5916615
0.79601961 0.55151498 -1.3676682
1.3089552 0.37043211 1.4608527
1.2225788 0.39277491 1.6692896
0.90775859 0.60947168 -1.5945796
0.8232047 0.58151931 -1.484169
0.63210362 0.30042949 1.6054821
3.4526365 0.63509703 0.021691
3.181421 0.6811946 0.0130004
2.5631576 0.75152802 -0.065932699
1.83233 0.41788539 -0.1315227
1.8849925 0.39498541 -0.223919
3.6892042 0.60225779 0.16296931
3.2160892 0.68232369 0.072768502
1.8617941 0.61940348 -0.117137
3.1699612 0.68294573 0.0134912
2.8196058 0.70542932 0.0474406
3.373934 0.64606851 0.1136209
2.6407721 0.71616381 0.0213225
3.654551 0.58474761 0.085298203
2.4604306 0.55905199 -0.12501191
3.5661709 0.58476979 0.23119339
3.6821404 0.59690827 0.1489557
2.4249852 0.68954402 0.0083969999
3.4529941 0.58782172 0.2209471
3.8523016 0.52023518 0.1990951
1.1912255 -0.65031838 1.6408058
0.65477657 0.1841076 1.9973905
0.72143239 0.19252691 1.8806025
1.0516301 0.0603006 2.110579
1.3378906 -0.3398754 1.7739249
1.3318347 -0.3389695 1.7480332
1.2502879 0.59315628 -0.37697849
1.4753082 0.52480459 -0.2481463
0.85829651 0.8367883 -0.76890987
1.4381361 0.49866241 -0.3873865
1.3689344 0.7765137 -0.35351291
0.85299659 0.52850842 -1.3983287
1.2486128 0.56637561 -0.52715552
1.086946 0.25947359 -0.4954446
0.90956777 0.81736553 -0.79706931
1.355613 0.78211677 -0.34428301
0.89264512 0.93699229 -0.74161649
1.3392637 0.56832641 -0.47399071
1.2585114 0.76822811 -0.35183579
0.97550082 1.042522 -1.4428639
1.295511 0.54054332 -0.26063481
0.932809 1.0346977 -0.71827859
0.84128672 0.1968708 -0.60118812
0.82547432 0.1909308 -0.58706802
0.94698441 1.0171613 -1.2481601
0.83676893 0.27904731 -0.58887982
1.1256804 0.2054197 -0.31767261
0.90053248 0.1106157 -0.47968751
1.0916363 0.77864331 -0.38173121
1.1378863 0.19803341 -0.32195789
0.86593312 0.28066951 -0.59903479
1.1338865 0.19864079 -0.31159991
1.0896925 0.59427267 -0.4166483
1.2885692 0.53892082 -0.2407407
1.149981 0.9678899 -0.4533464
1.1124249 0.98162729 -0.49897629
1.0984497 0.59365243 -0.42251259
1.1082273 0.77719063 -0.39309189
0.74642003 0.5229373 -1.2501428
1.1115556 0.57652211 -0.42499259
1.1048522 0.58446819 -0.42424181
1.1277372 0.54816008 -0.29050419
0.87224609 0.1068838 -0.46127081
1.1387144 0.9473511 -0.40473089
0.90172273 0.60688961 -0.4462069
1.119352 0.76885831 -0.40382829
0.93066841 0.60104817 -0.46325311
0.94266492 0.59453869 -0.47455689
1.2558806 0.5665316 -0.53008121
0.85477161 0.45047519 -0.53579682
0.94547868 0.58563411 -0.47220331
1.1293285 0.50373489 -0.1624036
1.1268934 0.50041682 -0.16738661
0.63250327 -0.13023619 0.0276682
0.64429551 -0.1191696 -0.0040569999
1.5242718 0.58593971 -0.35406241
1.4094474 0.72522712 -0.45903131
0.6276558 0.57544518 0.67080891
0.55043572 0.4312177 1.1178154
0.51071149 0.43746239 1.1687098
0.69313318 0.28716949 1.4150181
0.61148769 0.41502559 1.0615821
0.48607939 0.41841781 1.257847
-1.5400771 -0.071467601 -0.65644222
-1.5863798 -0.3076598 -0.71476781
-0.81916207 -0.0048038 -0.78987777
0.69157642 0.29240659 1.4119575
-1.315122 -0.044534799 -0.29767841
0.55412781 0.42156279 1.1304948
-1.4678483 0.076111503 -0.71764177
-1.3022403 -0.040513702 -0.2992807
-1.6336896 -0.30905339 -0.69653487
-1.5522636 -0.072920203 -0.64822388
-1.4453108 -0.055869501 -0.65901917
1.0996933 0.2527349 -0.68858141
1.4348928 0.4894768 -0.37384751
1.6681238 0.52792311 -0.44920379
1.2465125 0.57109261 -0.51598787
0.839553 0.36812359 -1.091152
1.0816795 0.2619645 -0.67510277
0.79663372 0.59838039 -1.4832733
1.0983902 0.75861818 -0.52659309
1.0966461 0.99184251 -0.48315039
0.81590271 0.59016818 -1.4815011
1.110829 0.58960479 -0.4313477
0.81472152 0.254868 -1.1546041
0.90294433 1.0462717 -0.70099622
0.83501929 0.7504046 -0.92819327
0.91759312 1.0326949 -0.67424393
0.79667783 0.62001199 -1.3005242
0.93825632 0.59570259 -0.47103751
1.0598623 0.94955379 -0.3776423
1.33964 0.74317509 -0.33798531
0.84243518 0.28381839 -0.60145098
0.72871888 -0.1044556 -0.078122497
0.96959507 0.4345265 1.1234318
0.78721511 0.51373458 0.86910361
0.7649864 0.51339233 -1.2586702
0.39499381 0.51066852 0.98326939
0.60275757 0.45651039 1.1963695
0.48187739 0.4850679 0.9787159
1.2681293 0.61438751 -0.33836871
0.96472991 1.0511932 -1.4423046
0.57435262 0.4937005 1.0306317
0.61509669 0.30229011 1.6420585
0.0340841 0.035441302 2.0657551
-0.0271923 0.043436799 2.1162109
0.050006401 0.0365378 2.0634565
-1.510632 -0.149323 -0.42192051
-1.3444192 -0.0529579 -0.2988987
-0.068185799 -0.0036822001 2.295109
-1.6934313 -0.63485467 -0.48078799
-1.5559402 -0.61046302 -0.5115909
0.8036288 0.58881491 -1.4811014
-1.6337289 -0.076383501 -0.62973058
-1.4817643 -0.36103401 -0.50355482
-1.8275468 -0.56904513 -0.72882837
-1.908329 -0.80442268 -0.78011489
-0.3797394 -1.4428369 2.4314427
-2.2575307 -0.66867149 -0.63607502
1.4300014 0.49054769 -0.35124969
1.1667188 0.60562289 -0.4389399
0.86317933 0.92289209 -1.1927236
1.4392843 0.48250079 -0.38453019
0.81168342 0.683456 -1.1462449
0.82714337 0.45642999 -1.1904073
0.73326433 0.4779053 -1.1303914
0.81239212 0.41248339 -1.0843527
1.2626239 0.76495731 -0.3593953
1.4329963 0.49048841 -0.38693011
0.853652 0.57005352 -1.4940696
1.4227188 0.49436399 -0.34663311
1.065061 0.26419559 -0.66222078
1.345482 0.55859512 -0.48595819
1.1211668 0.1090843 -0.36422071
1.2489575 0.74696201 -0.4822551
0.95783043 1.0765445 -0.98950541
2.5044048 0.72853923 -0.053380601
1.1085445 0.1083848 -0.35689139
0.82199121 0.42714429 -1.043205
0.79378068 0.46570039 -1.1756333
0.85690957 0.35160649 -0.9309833
1.1014509 0.17799971 -0.28058931
1.092098 0.59477431 -0.41867441
1.0976712 0.1790324 -0.2735894
0.91636461 0.8037011 -1.363811
0.88724858 0.68955863 -0.88782018
1.1302387 0.97785181 -0.4279097
1.4323127 0.49232069 -0.38887531
1.1291776 0.54653561 -0.29821181
1.0655099 0.17843901 -0.24202511
0.90618289 0.92916209 -0.75327712
0.9406898 1.0213182 -0.68259782
1.3558943 0.55652958 -0.51912707
0.94552118 1.0177212 -0.68895388
1.115384 0.50632107 -0.1450195
1.0843209 0.78149891 -0.37298059
0.80565143 0.29113701 -0.58869767
0.8121959 0.28406641 -0.58736688
0.74040377 0.2966058 -0.70525533
0.81450611 0.12443 -0.60730702
0.73994488 0.32219449 -0.74120343
2.8809309 0.73555881 -0.078597702
3.1823742 0.69949442 -0.039950199
2.34706 0.78761828 -0.199607
2.4283738 0.77492011 -0.17004611
2.7328975 0.74224472 -0.1136237
1.7409588 0.46661499 0.76719499
1.7756256 0.39519319 1.0493209
1.7603164 0.3985987 1.0780098
1.767943 0.39143321 1.0463881
0.44981319 -0.112078 -0.0492124
0.52826089 -0.123588 -0.082469799
1.7968732 0.34238389 1.2714415
2.3469405 0.79114908 -0.200207
1.263502 0.43598551 1.1086104
1.0189505 0.50786102 0.84456629
1.1718365 0.3786118 1.1386703
1.8415867 -0.013848 2.1117573
1.3549318 0.2788938 1.2850225
2.8993006 0.62078321 0.1808812
-0.25135469 -0.042483401 -0.26023331
1.8482207 -0.0033181 2.1238708
1.3914846 0.1923743 1.6570221
1.4137261 0.18196981 1.6058829
1.3992956 0.1907744 1.6430013
2.7826376 0.7236225 -0.1143681
1.078227 0.24565139 1.7805507
0.55930418 0.45029801 1.0598288
1.4529493 -0.052994002 2.195497
2.1025453 0.80136138 -0.2186451
1.4044697 -0.063349001 2.3797185
0.36220711 0.42895061 1.2446542
1.1797342 0.091144398 2.0548542
1.4236233 -0.46067229 2.3268464
1.3801869 -0.56234258 2.4781518
0.61433071 0.1128042 1.9565544
0.93945241 0.1124616 -0.60618877
1.2157044 0.54156047 -0.3094047
0.79577708 0.5871703 -0.92521501
1.0743258 0.18867061 -0.44403401
0.73378819 0.4015336 -1.0303156
1.0828261 0.1880196 -0.46085221
0.85378683 0.7375378 -0.94679368
1.5587481 0.4527761 -0.19177391
0.94069397 0.19571871 -0.7227931
1.0721027 0.2599071 -0.66195059
1.0803441 0.18520939 -0.452602
1.0817368 0.26099849 -0.67090303
1.0746087 0.58601493 -0.54970151
1.0566437 0.1911274 -0.4203715
1.0720202 0.1874138 -0.43494231
1.0757114 0.58635378 -0.55978072
1.0609981 0.59228069 -0.54415792
0.8126148 0.57863277 -0.93252689
1.0617677 0.594724 -0.53594822
1.0792134 0.58488983 -0.56242049
1.0700631 0.59268469 -0.54612023
0.78488719 0.58379209 -0.91731483
0.80185252 0.68466377 -0.87713659
1.0631731 0.59108323 -0.54501802
1.0757155 0.78316778 -0.49131969
1.0773265 0.53874427 -0.4032996
1.0773833 0.54201531 -0.39876971
0.9157424 0.60068882 -0.60268521
1.075323 0.78019029 -0.49970651
0.89272588 0.60969472 -0.58592057
0.84694672 0.1223809 -0.63505572
0.87049162 0.1171818 -0.64846361
0.71413201 -0.0999825 -0.083621196
0.71322441 -0.1127706 -0.040228602
0.70268172 -0.113605 -0.0386483
0.52101731 0.077070899 1.5468434
-0.41343999 -1.4533054 2.4921257
-1.8375695 -0.56876701 -0.71122491
-1.8953377 -0.57789791 -0.70405078
0.67428309 0.3222827 -0.70080751
0.86604708 0.1192337 -0.64833719
0.9012683 0.60643429 -0.59264868
0.89769047 0.60785532 -0.58692491
0.76912522 0.2028836 -0.74103957
0.80227178 0.45889169 -0.65421617
0.74806178 0.28634909 -0.69776428
0.81912923 0.30389959 -1.3346153
0.87555069 0.61440629 -0.56976622
0.70940959 0.3056896 -0.68019837
0.61360639 -0.025555899 -0.35520831
0.57030553 -0.1105545 -0.179464
0.54750371 -0.1221539 -0.1156324
0.5102545 -0.1228817 -0.090368897
0.54618382 -0.1190012 -0.1092345
1.1008657 0.4861241 0.77135938
1.0901662 0.48294839 0.77957588
1.059118 0.50328279 0.8854441
1.0079157 0.51615798 0.8404237
0.99345672 0.51771271 0.8785044
0.99300802 0.51842493 0.88685369
0.89662021 0.55623662 1.1063893
0.88220102 0.38878861 1.0910714
0.90854901 0.38485709 1.039851
0.61217582 0.51155329 0.9644267
0.69844258 0.49403459 0.80597031
0.52802807 0.58104831 0.65728807
0.67029828 0.50273001 0.8664884
0.50994992 0.56383687 0.80473298
0.78350937 0.28037271 -1.244045
0.39223969 0.4991954 0.82671469
0.47948861 0.2624318 1.6081588
0.43304479 0.40655631 1.1914331
0.39380631 0.43591169 1.1960052
0.52046353 0.25373101 1.5306485
0.3827278 0.42032969 1.2536029
0.53062618 0.26948449 1.6468748
0.47661021 0.27316281 1.6157959
0.37227929 0.41682339 1.2539995
0.4999187 0.26822311 1.6493298
0.51282042 0.26178059 1.6658312
0.4888756 0.2660048 1.6798559
0.229895 0.3307738 1.4447191
0.7941581 0.50326031 -1.2706455
-1.7689328 0.32178149 -0.3892355
-0.29420081 0.0087072998 2.2953467
-1.5912091 0.35616511 -0.68933058
2.4282036 0.77905309 -0.1618989
